ply
format ascii 1.0
element vertex 1217
property float x
property float y
property float z
property uint8 red
property uint8 green
property uint8 blue
end_header
-0.273961 1.514478 -1.525724 103 119 128
-0.197650 1.981349 -2.134832 2 2 66
-0.232862 1.900300 -3.051409 0 0 0
-2.067036 3.159686 2.864719 140 141 136
-1.633103 3.040853 2.650146 135 134 130
-1.372800 3.086405 2.496356 182 181 179
-0.678594 3.249809 2.070286 142 143 138
0.115690 3.291978 1.750464 212 211 209
-3.034907 3.955590 2.387853 130 130 130
-2.208580 3.925733 1.759414 179 177 178
-3.689464 3.942801 0.195346 111 108 103
-2.850528 3.782942 -0.768030 222 219 210
0.200611 1.344751 -1.143567 151 217 251
-0.527716 1.965209 -1.942413 59 55 46
-0.083103 1.775339 -2.087554 72 72 83
-1.644270 2.111194 -2.750851 144 142 130
-0.422930 1.682779 -3.337026 171 168 159
0.307906 3.281429 1.707777 200 199 195
-3.444851 4.294885 2.055734 0 0 0
-0.679704 4.804765 0.409922 131 130 126
-3.525699 4.470506 0.178612 0 0 0
0.122533 3.594537 -1.020630 214 214 204
-2.307109 4.082908 -0.576358 0 0 0
-0.562748 1.550472 -1.289276 73 143 215
0.532717 2.140274 -2.641852 0 0 0
-0.904622 1.756428 -3.118787 121 118 109
-1.585559 1.624553 -3.266028 112 109 104
-1.354066 3.028468 2.548542 130 129 125
-1.300766 3.162241 2.534733 209 208 204
-2.234232 3.296651 2.698056 196 197 191
-3.151529 4.022390 2.711452 114 114 114
-2.995631 4.581233 1.648278 115 114 112
0.541772 4.365081 0.771995 0 0 0
-2.241792 4.474714 1.291235 162 161 159
-0.547861 4.438953 0.773046 143 142 138
0.571413 4.849946 0.260765 161 161 159
-3.214690 4.590889 0.051626 134 133 128
0.580311 1.342768 -1.454479 58 149 240
0.165521 1.556495 -1.839732 0 42 80
-2.389954 3.022339 3.076752 95 94 92
-2.963095 4.195415 1.986295 0 0 0
-3.508059 4.451221 1.923434 106 105 103
0.662431 4.498774 0.489838 71 70 66
0.735629 1.531148 -1.432636 71 152 232
-0.588946 1.676452 -1.145444 168 215 243
-0.031938 2.157524 -2.793633 0 0 0
0.905297 2.867647 2.183601 0 0 0
-1.812224 3.181779 2.483410 142 144 133
-0.270012 2.128633 -2.059392 0 0 0
-1.000899 3.214785 2.224533 131 130 128
-0.076168 1.524141 -1.757133 30 71 115
-1.726797 4.663028 1.485018 122 121 119
0.461750 2.007040 -1.181714 244 240 223
0.348352 3.740937 1.137770 181 180 177
-1.650001 2.622010 -2.111485 95 92 85
-0.637928 2.249125 -2.618377 182 180 176
1.221626 3.646865 -0.990712 239 239 234
-1.000309 3.318961 2.034173 147 147 139
-2.187251 2.888751 -1.797410 64 61 56
0.096630 1.946292 -2.991225 83 84 81
-1.931724 3.139761 -1.490224 122 119 110
0.514338 4.306777 -0.156188 127 127 127
-2.548537 3.666734 2.282478 44 44 43
-3.008628 3.423306 -1.182906 109 108 105
-1.172664 2.385354 -2.430082 59 57 55
-1.905928 3.922833 -0.598159 233 230 220
-1.779209 3.072435 -1.593747 117 113 105
-0.932229 1.947181 -2.980108 64 63 60
0.525469 4.389641 0.543628 79 79 76
-2.279283 4.839247 0.784624 66 66 64
-2.549993 4.447195 1.427539 116 116 112
-0.618025 4.689114 0.289504 150 151 145
0.652796 2.911203 2.352683 209 208 204
0.736952 2.829805 2.307238 107 103 100
-1.353009 2.982940 2.681570 223 222 217
1.352255 3.012924 1.946272 252 251 247
2.234434 2.993504 1.592449 142 141 137
-1.904000 3.163357 2.639806 186 185 181
-1.917968 3.356669 2.361168 62 60 65
-1.830393 3.373231 2.272635 84 83 81
-1.794956 3.423757 2.201820 238 238 229
4.051172 3.270975 -1.276997 0 0 0
0.754092 3.596068 -1.049387 204 204 195
-3.824011 3.236013 0.284147 213 210 203
0.380421 3.699496 -1.086505 158 158 148
-3.905011 2.741121 0.011586 210 207 202
-3.944800 2.862262 -0.203379 252 250 243
1.734725 2.798804 -2.127576 0 0 0
1.847849 2.658935 -2.192039 180 177 168
1.234557 2.715510 -2.307760 133 130 121
-1.536745 3.318968 -1.754450 0 0 0
-1.862397 2.621357 -2.107043 252 250 238
1.120018 2.165286 -2.848383 130 127 118
1.117678 2.358521 -2.925335 130 127 118
0.342225 2.180743 -2.736147 120 119 115
0.481563 2.107124 -2.769840 113 113 112
0.882142 2.186527 -3.163188 119 116 107
-2.482855 2.260074 -2.480228 245 241 232
-1.643443 2.043256 -3.064739 0 0 0
-0.694569 1.592522 -3.447348 73 70 61
-0.380196 1.533485 -3.513689 139 136 127
-1.098379 1.594879 -3.382848 184 181 176
-0.656196 1.429392 -3.398439 0 0 0
-1.617843 1.655658 -3.328957 0 0 0
-1.507552 1.777985 -3.460763 0 0 0
-1.114602 1.534302 -3.448303 84 81 72
-1.133385 1.455226 -3.407850 0 0 0
-1.089849 1.445281 -3.443223 113 110 105
-0.861375 1.322722 -3.532131 0 0 0
-0.738920 1.339050 -3.651915 99 95 86
-1.191503 1.328500 -3.513593 0 0 0
-0.385526 2.924745 2.445356 253 253 249
-1.878260 3.330027 2.357169 176 177 163
1.799707 4.225615 0.510382 77 76 72
-0.767884 4.229861 0.989264 99 99 95
0.257264 3.617553 -1.012611 165 164 159
0.456036 1.388676 -1.193718 0 0 0
-1.831583 1.869178 -3.030155 120 116 107
-0.239634 1.545570 -3.367243 95 92 83
-1.337811 1.305798 -3.664762 88 85 80
-0.476651 1.090908 -4.146053 147 143 134
-2.009761 3.193331 2.669787 99 99 97
1.255027 3.149653 -1.494780 225 222 213
-0.102257 1.660900 -1.921191 0 0 0
1.651546 2.055081 -2.980030 197 194 185
-0.842612 4.339073 -0.194458 196 197 192
-3.242971 3.670328 -0.888869 162 159 154
0.244768 1.338670 -1.139844 134 202 248
0.878385 2.303593 -2.580019 129 126 121
-2.467582 3.277620 2.799999 218 219 213
0.421072 1.583097 -1.616990 26 97 175
-3.205364 4.205552 2.380156 38 39 41
-1.573966 1.621988 -3.259624 0 0 0
-2.519843 3.081245 2.983674 123 119 116
3.651522 4.010095 -0.271922 0 0 0
1.104751 4.443448 0.461457 121 120 116
-1.833977 3.148987 2.599618 97 96 92
-1.403472 3.163934 2.400493 159 158 154
-1.659250 3.265553 2.383737 103 102 98
-0.550475 3.033396 2.439048 184 183 178
-1.862555 3.375524 2.235163 105 104 102
-1.284129 3.269269 2.281449 143 142 138
1.047342 2.792538 2.276652 159 158 154
-2.465883 3.862620 1.932402 90 90 88
-0.535869 3.230668 2.058229 221 220 216
-0.923352 3.426334 1.849284 111 110 108
0.016090 3.316777 1.692527 0 0 0
0.774472 3.165657 1.764121 122 121 116
2.707685 2.526091 1.919539 104 103 101
0.210244 3.388301 1.581534 193 192 188
-0.789951 3.714267 1.452220 112 111 109
-0.740375 3.753048 1.369198 125 124 122
0.482001 3.443203 1.440361 175 174 172
-3.157471 5.061551 0.635814 120 121 116
-3.204469 5.062120 0.573549 110 111 106
3.310244 2.668923 1.524322 87 83 79
1.310926 3.598053 1.082305 104 103 99
-1.469718 4.807158 0.545819 49 49 47
-0.516559 4.536526 0.644776 103 103 101
-3.554944 3.991379 -0.666011 81 78 73
1.243314 4.208912 0.606475 82 81 79
-0.706008 4.300606 -0.193308 198 197 195
2.673425 3.797384 0.691686 136 132 129
2.537075 4.409424 0.261193 60 59 55
1.758337 4.173101 -0.262971 242 241 237
1.154437 4.015773 -0.470581 92 92 90
0.334117 3.550783 -1.034502 0 0 0
2.206684 4.001596 -0.462062 222 221 217
-0.024246 2.108021 -1.098755 252 252 235
-0.089207 1.350683 -1.070684 0 0 0
-0.055400 1.615209 -1.070326 245 255 232
0.018268 1.442391 -1.020095 245 255 232
0.853043 3.571967 -1.090295 180 179 175
0.164635 1.392558 -1.120069 137 208 255
-1.556889 2.798848 -1.997531 209 210 202
2.042425 3.590921 -1.045293 157 154 149
2.753556 3.622272 -0.820486 248 249 234
-1.113528 2.669664 -2.122090 0 0 0
-1.229973 2.651981 -2.165224 118 117 112
-1.174660 2.419494 -2.402429 120 119 114
0.242845 1.407047 -1.745156 87 149 206
0.794428 2.925183 -1.990344 97 97 95
0.068946 1.648069 -1.975342 212 210 198
1.028095 2.881382 -1.971354 0 0 0
0.097286 1.758807 -2.066090 0 0 0
0.008196 1.840512 -2.154352 4 7 110
0.216206 1.875910 -2.095795 10 8 45
-1.097891 2.088275 -2.745987 106 105 100
-0.540830 2.183240 -2.601934 85 84 79
0.581106 2.589113 -2.307583 98 98 98
0.618913 2.639949 -2.310791 0 0 0
0.774833 2.678173 -2.261468 0 0 0
-1.124010 2.007241 -2.856447 71 70 65
-1.933269 1.631065 -3.243047 99 95 90
0.569287 2.472399 -2.480659 157 157 157
0.758484 2.469027 -2.406296 0 0 0
-3.413716 1.178748 -3.730858 76 73 64
-0.368502 2.116046 -2.776276 185 184 179
0.637972 2.425353 -2.470225 104 104 102
-1.321085 1.798597 -3.092020 101 98 93
0.534069 2.384856 -2.549022 100 100 98
-0.531303 2.009885 -2.909162 0 0 0
-1.747475 1.515596 -3.321288 83 79 76
0.822287 2.403780 -2.532912 153 152 148
1.592134 2.555286 -2.301503 0 0 0
-1.628368 1.524723 -3.362405 102 99 94
0.751130 2.324265 -2.630255 95 94 90
1.335981 2.488255 -2.440282 173 170 165
0.295070 2.126473 -2.778955 79 80 75
-0.702785 1.833984 -3.105056 87 86 82
1.011534 2.363797 -2.542719 170 169 165
-0.907871 1.723111 -3.168412 111 108 99
0.289995 2.076750 -2.795655 95 94 90
-0.083662 1.985707 -2.931490 0 0 0
0.920285 2.305897 -2.620051 208 208 200
0.918096 2.327380 -2.626344 208 208 200
-1.818778 1.461240 -3.498235 111 108 103
0.316400 2.152964 -2.829523 0 0 0
-2.229445 1.319057 -3.651746 55 50 46
0.719398 2.256316 -2.745859 131 130 126
0.744514 2.107648 -2.693212 0 0 0
-1.351463 1.520255 -3.377235 79 76 71
1.179039 2.270807 -2.581756 0 0 0
0.188411 1.885884 -2.874157 0 0 0
0.579055 2.079952 -2.774409 136 135 131
0.127803 1.950839 -2.920963 106 105 101
0.365574 2.056255 -2.875209 85 84 80
0.335088 1.978493 -2.861653 142 141 137
-1.723706 1.390838 -3.537010 101 98 93
1.119293 2.288316 -2.645844 95 94 89
0.395976 2.030828 -2.877082 0 0 0
-1.285619 1.491118 -3.408110 199 196 191
-1.559997 1.409288 -3.501191 91 87 87
-1.142134 1.392475 -3.311556 117 114 104
-1.142134 1.392475 -3.311556 117 114 104
-1.272332 1.494161 -3.419310 101 98 93
1.860313 2.492530 -2.418494 181 178 169
1.280484 2.403853 -2.654699 191 189 177
1.272448 2.317030 -2.606566 191 189 177
-0.277246 1.810147 -3.116053 205 204 199
-0.248806 1.758591 -3.080751 205 204 199
1.366304 2.314615 -2.590885 0 0 0
-1.925675 0.994783 -3.536362 78 75 66
0.424009 2.000780 -2.890628 200 199 195
0.424009 2.000780 -2.890628 200 199 195
-0.849947 1.595271 -3.307091 108 105 96
-1.451149 1.446689 -3.525629 100 97 88
-0.936557 1.534852 -3.328977 240 240 231
0.467243 2.026202 -2.917124 207 206 202
1.104587 2.217382 -2.722117 0 0 0
-1.157123 1.507388 -3.461345 110 106 97
-1.157055 1.440544 -3.437286 118 115 110
-0.417635 1.667937 -3.210819 114 111 106
2.015556 2.433765 -2.418314 125 122 113
-1.023271 1.555814 -3.443920 97 94 85
-0.063486 1.804060 -3.106865 121 120 115
-2.214485 1.145231 -3.829220 86 83 74
-0.880857 1.556970 -3.401778 133 130 121
-1.104323 1.278228 -3.402729 82 79 74
1.372100 2.219424 -2.700009 0 0 0
0.442284 1.936266 -2.987949 121 120 116
0.751119 2.052851 -2.918155 209 208 203
-1.090177 1.410783 -3.479096 90 87 82
-0.561011 1.655323 -3.358443 192 189 184
0.728062 1.995693 -2.905016 126 125 120
-1.443163 1.363830 -3.646733 85 82 77
-0.881774 1.498057 -3.443640 90 87 78
-0.805519 1.367609 -3.344826 90 87 78
-0.913666 1.296093 -3.374468 98 95 86
0.543278 1.943333 -3.013294 175 175 167
-1.153812 1.356920 -3.557950 90 87 82
1.004617 1.966565 -2.858980 0 0 0
-1.330914 1.077553 -3.532726 110 106 103
-0.165010 1.652234 -3.256976 89 86 77
0.784113 2.001754 -2.966683 188 187 182
-1.244018 1.353528 -3.631889 93 90 85
0.553934 1.839850 -3.019742 208 207 202
1.160416 2.118213 -2.873239 74 73 69
-0.425742 1.532792 -3.338471 122 118 114
0.554544 2.112048 -3.175514 0 0 0
-1.400160 1.247654 -3.706542 87 83 79
0.346013 1.794045 -3.153513 89 88 83
-0.874215 1.418568 -3.566133 108 105 100
-1.241793 1.267244 -3.681077 107 104 99
-1.261763 1.283520 -3.708863 72 69 64
0.894686 1.968138 -3.013987 113 109 106
0.237877 1.736885 -3.224126 105 104 99
0.059267 1.656477 -3.272155 141 141 131
-0.956166 1.363855 -3.617968 101 98 93
0.085456 1.677733 -3.274235 115 115 105
0.710798 1.886626 -3.088810 196 195 190
1.281992 2.105841 -2.929091 87 86 82
-1.699767 0.955435 -3.802101 101 98 93
1.102085 1.912103 -2.934452 95 92 87
1.087066 2.002734 -2.993101 95 92 87
0.523132 1.731197 -3.127438 103 102 98
-1.319640 1.215253 -3.777831 69 66 61
-0.618439 1.388695 -3.531775 120 117 108
-0.620369 1.390560 -3.532321 120 117 108
0.001447 1.601653 -3.346900 76 73 68
0.314711 1.735716 -3.266344 138 134 131
-1.782509 1.035901 -3.950736 79 76 71
-0.922375 1.311950 -3.673808 90 87 78
-1.245941 1.201210 -3.781819 165 162 157
0.008987 1.594551 -3.383238 217 214 209
-1.856678 1.000977 -4.009181 98 95 86
-0.974647 1.268319 -3.714556 94 91 86
-0.560317 1.355686 -3.560807 112 109 103
-0.037441 1.550147 -3.403677 121 118 113
-0.055665 1.587840 -3.429168 0 0 0
-1.519926 0.931055 -3.824187 107 104 99
-1.630421 1.055256 -3.939631 107 104 99
0.461718 1.717385 -3.258409 93 92 87
0.794198 1.828311 -3.153532 201 198 189
0.693785 1.782908 -3.181670 189 187 174
0.732197 1.714230 -3.141862 96 95 91
-0.956917 1.257948 -3.735515 106 103 98
-1.739440 0.994324 -4.003739 124 121 112
-1.196392 1.018720 -3.752823 77 74 69
-1.290352 1.137990 -3.859903 77 74 69
0.877198 1.831269 -3.172926 222 219 214
-0.688327 1.314920 -3.678653 84 80 71
-0.690298 1.296595 -3.672251 84 80 71
0.349062 1.559639 -3.302972 98 98 88
-1.118007 1.185791 -3.852523 100 97 92
-1.161371 1.162373 -3.868444 104 101 96
-1.419979 1.057496 -3.943009 163 160 155
0.476197 1.639164 -3.308888 126 125 120
-0.373366 1.352392 -3.586775 104 101 92
-1.111791 1.147802 -3.865427 88 85 80
-0.376304 1.365074 -3.620928 217 214 205
0.528468 1.537349 -3.263486 104 103 98
-0.075938 1.376523 -3.480492 103 100 91
-1.606041 0.958611 -4.048907 74 73 69
-0.878227 1.212051 -3.835405 94 91 82
-0.113725 1.319151 -3.539738 127 124 115
-0.824358 1.183110 -3.825408 102 98 95
-1.430645 0.678329 -3.865250 150 149 145
-0.989020 1.161607 -3.908229 93 90 85
-1.294404 1.022287 -3.989741 168 165 160
0.037479 1.470875 -3.557331 129 126 117
-1.085099 1.077056 -3.951345 72 68 65
-1.091631 1.082179 -3.956387 72 68 65
0.619700 1.605226 -3.387496 106 103 98
0.171956 1.478046 -3.556374 113 110 101
0.194021 1.429107 -3.521552 113 110 101
0.246463 1.459269 -3.511094 94 91 82
-0.801715 1.153765 -3.900315 109 106 97
-0.395252 1.282228 -3.772640 117 114 105
0.374230 2.824083 2.540922 0 0 0
-1.837765 3.394125 2.239455 112 111 107
-2.262813 3.522120 2.124494 0 0 0
0.064813 2.973099 2.297042 132 131 127
-3.635376 3.888940 1.077250 128 127 122
-3.558911 4.116096 1.088626 126 125 121
-3.581676 4.077500 0.965637 114 113 109
-0.107319 3.584366 1.416343 105 104 100
-1.861632 4.626135 0.848592 133 132 130
2.139555 3.171862 1.407050 124 123 119
-3.627555 4.827430 0.289202 93 92 87
-3.578017 4.728811 0.248620 102 101 96
-3.671307 4.176487 0.062941 156 155 150
-3.457324 4.702946 0.105128 237 236 231
-0.503115 4.412663 0.767969 111 110 108
-3.521035 4.455153 -0.131604 138 137 133
-3.177047 4.513736 -0.061124 135 134 129
-3.303121 4.199495 -0.385194 160 160 150
-4.040541 3.653899 -0.721716 0 0 0
-3.546448 3.949198 -0.651000 250 249 244
-0.071834 2.363425 -1.027550 255 255 245
2.097907 4.015414 -0.488449 138 137 132
-0.076677 1.494969 -1.030456 60 47 42
-0.076677 1.494969 -1.030456 60 47 42
0.392594 1.409623 -1.185460 148 219 255
0.653070 1.496951 -1.305778 0 0 0
0.687267 1.507580 -1.317747 0 0 0
0.716061 1.519042 -1.334738 150 218 255
0.284443 1.453033 -1.730531 1 1 1
0.131978 1.665250 -1.963035 106 102 91
0.655423 2.121294 -2.845673 143 142 138
1.852658 2.290656 -2.538334 119 116 111
-0.603554 1.225973 -3.622747 151 147 144
0.837635 1.739523 -3.247119 216 213 204
0.836222 1.743865 -3.249612 216 213 204
1.209360 2.563938 2.559898 196 192 189
-2.608439 3.665896 2.206479 96 96 94
-2.192985 3.811559 1.923774 124 124 122
-0.976697 3.398967 1.879493 160 159 155
-2.668387 4.431233 1.495184 115 115 113
-3.665073 4.021899 0.407598 119 118 113
-2.506337 4.984718 0.807364 111 111 109
-3.154989 4.281300 -0.262686 136 136 126
-3.595701 4.203049 -0.475035 200 199 194
-0.864676 4.319466 -0.109372 171 171 169
-3.859726 3.710880 -1.058570 91 90 85
-3.974752 3.610705 -1.179371 127 127 117
-0.388395 4.188974 -0.293120 197 197 195
-0.451925 4.135401 -0.351603 191 190 186
-0.097111 2.050784 -0.770427 255 255 221
-4.167471 2.598208 -2.139796 96 93 84
-3.121432 2.871201 -1.834647 195 192 183
-0.125529 2.303652 -0.853858 147 144 135
-0.653910 1.737439 -1.168933 188 219 230
0.109747 1.348566 -1.161133 137 204 255
0.151243 1.372525 -1.187354 0 0 0
0.347572 1.384287 -1.152618 112 183 236
0.470025 1.391160 -1.175107 0 0 0
0.694384 1.497200 -1.310561 89 169 240
1.191661 3.028370 -1.865335 166 165 160
0.171237 1.881288 -2.149382 32 41 135
2.901548 3.247713 -1.464283 143 140 135
2.929889 3.231575 -1.528794 196 193 184
-2.076682 3.360773 2.357703 112 111 109
-1.184537 3.113094 2.397514 0 0 0
-2.275182 3.621673 2.138837 104 104 102
-0.590989 3.120673 2.226943 172 171 167
0.661079 2.965994 2.119078 169 166 161
-0.347623 3.300317 1.871296 193 192 187
1.458091 2.903721 2.049205 194 193 188
-1.706460 3.829975 1.620386 122 122 120
-2.666124 4.383669 1.576014 84 85 80
-3.735276 2.980767 0.693954 107 106 101
-3.648355 4.489538 0.575415 151 150 145
-0.052075 3.873385 1.120946 97 96 94
-3.061980 4.961248 0.507088 124 125 120
-3.679110 4.367873 -0.108902 152 153 148
-4.125112 1.800475 -0.572351 144 141 136
-4.125112 1.800475 -0.572351 144 141 136
-3.952173 2.687112 -0.649118 152 149 144
-0.462560 4.869875 0.418897 0 0 0
-3.957632 2.987130 -0.640167 145 142 137
-3.693933 4.139517 -0.579009 106 103 98
0.181141 4.636342 0.156051 170 170 168
-0.327216 1.670423 -1.001590 98 97 92
-4.301138 1.746405 -2.383718 152 150 138
1.512626 3.679095 -0.922367 113 110 105
1.766308 3.640795 -0.986331 209 206 197
1.661447 3.704264 -1.047619 0 0 0
0.171834 1.240896 -1.217139 129 207 253
2.358052 3.681477 -0.903898 208 207 202
-1.557096 2.609809 -2.186894 154 153 148
2.293727 3.588934 -0.977559 154 153 149
0.679270 1.465201 -1.278306 92 175 241
2.638051 3.541638 -1.345327 0 0 0
-0.906392 2.114828 -2.733465 97 93 91
-3.070819 1.451737 -3.450983 153 150 141
-0.527984 1.816192 -3.084722 206 205 201
-2.063240 1.301977 -3.599863 140 136 127
1.011710 2.871707 2.222028 179 178 173
-0.578580 3.294464 1.870320 138 137 135
1.552026 2.862651 1.983411 163 162 160
-3.606735 3.745102 1.218510 122 121 117
1.388534 2.913054 1.867539 107 103 100
-0.619431 3.590230 1.529211 174 173 169
1.285219 3.121755 1.721565 113 111 112
-1.762591 4.882588 0.570060 45 44 40
-0.754427 4.515931 0.735450 90 89 87
-3.970411 2.198531 -0.432798 178 176 164
-4.068664 1.969645 -0.455635 213 210 201
-2.985318 4.334065 -0.143508 184 183 178
-3.610515 4.288890 -0.328834 115 115 113
-3.897858 2.710011 -0.581652 0 0 0
-3.846806 3.587182 -1.242397 119 118 113
1.460866 4.541444 0.157304 157 158 153
-3.014652 3.186746 -1.557443 127 124 115
-3.418496 3.017552 -1.705983 244 241 232
-2.019314 2.500628 -2.279467 173 169 160
0.589272 1.543354 -1.244033 167 219 247
0.241149 1.479827 -1.717523 239 244 240
-0.157862 1.986581 -2.234026 155 156 148
-0.524626 2.309051 -2.549247 87 86 82
-0.736846 1.820181 -3.060384 106 105 100
0.190900 2.080474 -2.857851 166 164 164
-1.364301 1.567765 -3.345675 115 112 107
1.137254 2.284883 -2.608374 222 221 216
0.287369 1.859974 -3.105485 160 159 155
-3.567001 2.778541 2.100662 147 146 142
2.013705 2.406358 2.436316 140 136 135
-1.857988 3.526843 2.108125 120 119 115
-1.700284 3.666416 1.803940 0 0 0
-0.271900 3.252664 1.901490 149 148 146
1.884344 2.715207 1.980344 188 185 176
1.490286 3.009733 1.824017 0 0 0
-2.202554 4.684784 0.736289 0 0 0
1.010789 3.470392 1.270695 183 181 179
-4.037847 3.367736 -1.651386 139 138 133
3.367164 4.182910 -0.232223 151 150 146
2.164186 3.686974 -0.942144 240 240 230
2.381267 3.204184 -1.322802 174 174 164
-1.397646 1.915748 -2.956989 199 196 191
-1.267287 1.686357 -3.245326 181 178 169
-1.296036 1.726492 -3.264921 181 178 169
-0.133422 1.749151 -3.191048 176 173 164
0.150180 1.819991 -3.103657 176 176 166
-0.318932 1.651659 -3.270444 105 104 99
1.443867 1.971212 -2.927429 147 147 137
0.834981 4.189828 -0.433734 0 0 0
0.510547 3.259256 -1.388360 187 184 179
1.202586 3.033009 -1.732899 0 0 0
0.085350 1.777704 -2.095643 0 0 0
-1.226272 4.559664 0.634430 0 0 0
-0.299917 2.075438 -2.098102 211 208 199
-0.299917 2.075438 -2.098102 211 208 199
0.513254 1.536440 -1.729346 17 79 136
-0.637756 3.450637 1.722991 133 133 131
2.944822 4.230265 -0.161577 185 184 179
3.627444 4.312520 -0.149802 73 69 66
3.991634 4.818118 0.130936 69 66 63
-0.237193 3.149232 -1.122361 218 215 206
-0.508107 3.252443 -1.228530 255 255 245
-3.205050 5.089909 1.096143 35 36 38
-2.258272 4.965388 0.619527 53 53 51
-0.069454 3.035103 2.211611 104 103 102
0.017352 4.173429 -0.345321 96 96 94
-2.706742 4.447051 1.513447 111 112 107
-1.052711 2.475672 -2.322006 32 30 24
-1.063680 3.083795 2.383689 78 76 77
-1.793573 3.781154 1.724080 143 142 140
-1.943317 4.807190 0.708782 100 100 99
-0.335816 3.848096 -0.706562 187 187 183
-1.509282 3.112885 2.484934 68 67 66
0.638762 1.833489 -3.123239 65 64 64
-2.440365 4.838938 0.446731 143 143 142
0.017065 4.175207 -0.343357 150 150 148
-0.857440 1.580002 -3.340567 126 123 118
-1.007006 3.493718 1.837497 120 120 119
0.822473 3.441104 -1.236506 159 158 156
1.669579 4.306768 0.437462 93 92 90
0.115360 3.288572 1.750132 95 94 93
-0.078393 2.850662 2.546960 161 160 156
-0.377788 2.926359 2.482279 0 0 0
1.188731 2.914892 2.043650 216 215 210
3.377449 2.738048 1.540542 0 0 0
2.732021 3.090677 1.264244 72 68 69
-0.145659 1.501386 -1.095342 16 4 4
-0.339418 1.481101 -1.535235 247 249 248
-0.030096 1.113167 -1.530012 189 195 188
0.349675 1.582204 -1.828117 87 138 195
1.333688 2.926429 -2.045396 0 0 0
0.960261 2.548243 -2.534735 0 0 0
0.144692 2.143337 -2.802219 92 91 87
-0.831204 1.759295 -3.074425 97 93 90
-1.608142 1.337385 -3.287082 108 105 100
-1.500994 1.330829 -3.263258 117 114 109
0.482305 2.166818 -2.766879 97 97 95
-1.655841 1.232404 -3.364354 102 99 94
-1.550285 1.430982 -3.471338 67 64 59
-1.928888 1.026325 -3.517422 110 106 97
-1.348435 1.254059 -3.414523 166 163 154
-1.215563 1.240316 -3.383198 91 88 83
-0.625408 1.639155 -3.289137 105 102 97
-1.496011 1.084340 -3.499192 100 96 93
-1.271340 1.169445 -3.449626 85 82 77
0.213215 1.816730 -3.056154 106 105 100
-1.274577 1.141970 -3.466511 85 82 77
-1.365822 1.110204 -3.505987 110 107 102
0.956162 2.015113 -2.848306 202 201 197
-1.411034 1.026068 -3.557186 98 95 90
-1.375306 1.190110 -3.634961 59 55 52
-1.186452 1.076984 -3.518469 83 79 76
-1.186452 1.076984 -3.518469 83 79 76
-0.717697 1.249895 -3.423588 173 170 165
-1.159390 1.057686 -3.558127 99 96 91
-1.418255 0.893921 -3.654657 78 75 70
0.090386 1.678994 -3.334383 118 118 108
-1.130752 1.000247 -3.594674 203 200 195
-1.016486 1.295281 -3.684744 106 103 98
-0.548829 1.413616 -3.522098 95 92 86
-0.811386 1.111844 -3.552934 95 92 87
-1.303982 0.895025 -3.693664 98 95 90
0.473436 1.692244 -3.229481 93 92 87
-1.267871 1.060476 -3.942072 77 74 69
-1.199409 0.904327 -3.877829 168 165 160
0.313262 1.403407 -3.474492 96 93 84
0.636090 1.467330 -3.364223 112 109 104
0.991908 1.623014 -3.251820 251 248 239
0.309909 1.388749 -3.492180 195 192 183
-3.594133 3.396961 1.359519 0 0 0
-0.170441 4.554840 0.560222 0 0 0
1.701527 4.359832 -0.118757 194 195 190
0.821193 1.439073 -1.361757 83 158 226
0.201606 1.346861 -1.672072 24 91 159
1.412793 2.282698 -2.621802 158 155 150
0.755203 3.801006 0.994613 115 114 110
-3.833951 2.900723 -1.920361 231 229 220
-0.078527 2.192733 -0.844433 0 0 0
-0.306634 1.414916 -1.461329 0 0 0
1.216487 2.981707 -1.853164 128 125 120
1.592711 2.409698 2.673163 0 0 0
0.834435 2.618263 2.591176 182 178 175
-3.674070 3.985441 -0.758794 216 216 205
0.871944 1.574369 -1.413164 162 211 244
2.195593 2.890824 1.842218 151 150 146
-3.793083 4.139939 0.198789 0 0 0
1.166513 4.345181 -0.126919 222 223 218
-0.008617 1.364679 -1.061588 225 222 191
4.136700 3.726506 -1.294099 0 0 0
-3.640918 2.700165 1.519166 0 0 0
-3.902151 2.050993 0.740666 203 202 197
-3.050901 3.575982 -1.105725 122 119 110
0.414923 1.870437 -2.058497 139 139 129
-1.889522 3.274446 2.415042 121 121 119
-3.843581 1.907852 1.286370 203 203 193
2.920076 2.419214 2.495609 225 224 220
-3.841363 2.615661 0.901771 162 161 156
2.874031 2.746229 1.500340 221 220 218
0.533123 2.184765 -2.685155 123 123 121
1.521123 4.527848 0.137048 191 191 181
3.061913 3.260642 -1.341199 148 147 144
-0.695993 4.067359 -0.439065 208 208 206
-0.062875 3.799855 -0.741481 213 213 203
-0.883114 4.015437 -0.496647 233 232 227
2.462786 3.052223 -1.594815 241 238 229
-1.371493 4.089561 -0.400064 226 226 216
1.874752 3.250791 -1.455710 246 243 238
-1.762890 4.126979 -0.373425 119 118 113
-1.408497 4.004533 -0.503325 169 169 159
-1.910962 4.131060 -0.351610 250 249 243
-1.110901 3.883262 -0.651292 141 142 137
-1.507175 3.975463 -0.542988 171 171 161
1.715746 3.165738 -1.545523 238 237 232
-1.295422 3.904452 -0.621408 135 134 129
-1.466469 3.922705 -0.602205 158 158 148
-0.867597 3.684124 -0.870062 169 168 163
-1.584531 3.914894 -0.665018 165 165 155
-3.472702 4.452730 -0.114088 185 186 180
-2.579111 4.126761 -0.400729 136 135 131
2.177807 2.915114 -1.858760 144 141 136
-0.950277 3.650889 -0.940526 234 234 224
-1.913975 3.859273 -0.675733 239 239 229
-2.409571 3.979709 -0.525925 125 124 119
-2.075704 3.881789 -0.648711 139 138 133
-1.303880 3.684633 -0.894693 209 208 203
-2.420552 3.977185 -0.553702 162 161 156
-1.602304 3.746686 -0.825951 139 136 127
-1.537964 3.722255 -0.862610 231 231 221
-2.210841 3.884547 -0.661410 158 157 152
-2.082477 3.832026 -0.704453 160 160 150
-1.928409 3.795752 -0.749852 217 217 207
-0.310570 1.436028 -1.085679 251 251 220
-1.457199 3.665083 -0.924185 225 223 211
-2.687147 3.957733 -0.567999 117 116 112
-1.102540 3.465212 -1.043842 214 213 208
-2.024955 3.762571 -0.793874 221 218 209
-1.824068 3.660422 -0.928293 210 207 198
-1.476754 3.562494 -1.060846 213 210 201
1.669250 2.723677 -2.018826 130 127 122
-1.309642 3.426661 -1.181513 231 230 225
-2.600265 3.721668 -0.843733 141 140 135
1.546533 2.681343 -2.103060 117 112 106
-1.806059 3.493431 -1.119785 253 251 239
-2.409014 3.560356 -1.021733 118 115 106
-2.050365 3.412768 -1.216430 235 233 221
-2.050365 3.412768 -1.216430 235 233 221
-3.605124 3.892665 -0.783432 89 88 84
-3.410361 3.703225 -0.922997 213 212 207
-2.159676 3.299429 -1.328422 230 226 215
-2.472264 3.249649 -1.403215 252 250 238
-2.577362 3.224692 -1.397849 224 220 211
-2.543786 3.215957 -1.433216 234 231 222
-2.250974 3.106856 -1.564957 98 94 85
-0.461429 1.939044 -1.889451 177 169 146
-2.996564 3.224366 -1.429068 87 85 77
-2.095726 2.988388 -1.690093 97 90 82
-2.031656 2.952785 -1.726793 222 219 204
-2.312883 3.006104 -1.655797 105 98 94
0.070914 1.856793 -2.140234 34 41 69
-2.017939 2.948603 -1.757871 70 66 57
-2.043069 2.944878 -1.752915 243 240 225
-3.335001 3.258272 -1.418219 240 240 228
-0.177310 1.836370 -2.091470 83 81 101
-1.680852 2.699049 -1.998489 118 113 109
-2.772511 2.945082 -1.716108 74 71 66
-2.457974 2.879235 -1.860023 104 100 91
-2.485998 2.896416 -1.861135 223 221 208
-2.043659 2.738366 -1.991324 254 251 234
-2.447836 4.417121 1.409494 162 161 156
1.708512 4.258262 -0.149895 159 158 154
-0.712797 4.517405 0.543877 129 130 125
-0.721298 4.619843 0.516334 109 108 104
-0.999621 4.595336 0.497377 114 113 109
-0.000889 4.437284 0.072846 169 169 167
2.336183 3.711451 -0.793192 165 164 159
-2.811960 5.026462 0.893286 96 96 94
-0.071601 2.047253 -0.775013 68 54 45
-0.093885 2.081789 -0.801872 229 222 190
0.079096 1.407709 -1.017366 251 249 212
-0.881198 3.656976 -0.911353 0 0 0
-0.142221 1.407576 -1.023525 255 250 221
-0.478897 3.487217 -1.052938 196 196 186
0.112841 1.341939 -1.144209 111 171 229
0.102383 1.318626 -1.170820 111 176 232
-2.168260 3.856538 -0.638929 193 193 183
-0.222249 1.390536 -1.074212 220 205 131
-1.624520 3.728379 -0.814678 206 203 194
2.049340 2.811801 -1.983480 131 128 123
-2.600175 3.953003 -0.584205 139 138 134
-0.446897 1.596248 -1.090180 129 187 225
-0.472908 1.612154 -1.098140 116 173 220
-2.149053 3.729511 -0.824198 150 147 138
-0.608558 1.692994 -1.146761 173 220 248
-2.694446 3.803976 -0.752292 202 201 196
-0.850563 3.374938 -1.314179 168 167 162
-1.423193 3.465906 -1.139731 125 124 119
-2.383110 3.694587 -0.872961 142 139 134
-2.084768 3.613066 -0.966678 136 133 126
-1.684696 3.434369 -1.125397 154 151 142
-2.413151 3.656923 -0.921940 188 185 180
-2.751843 3.752009 -0.825980 232 232 222
-2.605395 3.702208 -0.869761 119 118 113
-2.932512 3.759921 -0.770734 143 142 137
-1.582357 3.418387 -1.199472 0 0 0
-1.768156 3.921006 -1.223845 0 0 0
-2.760567 3.707682 -0.878826 242 243 229
-2.328287 3.571957 -1.015889 200 197 188
-1.686565 3.438246 -1.218993 221 219 207
0.345843 1.327902 -1.576581 70 78 81
-2.200019 3.466200 -1.134475 138 135 130
-2.929379 3.651946 -0.931683 128 127 122
-2.300003 3.470949 -1.123425 219 216 207
-3.441532 3.833630 -0.803870 99 98 93
-3.438039 3.826239 -0.803382 99 98 93
-2.685031 3.547797 -1.013888 197 194 189
-1.941592 3.373866 -1.234386 238 238 210
-3.210728 3.740593 -0.878038 199 199 189
-1.966022 3.328737 -1.273593 201 198 189
-0.226783 1.412969 -1.509619 87 86 82
0.410304 1.455962 -1.741988 116 120 121
-3.103398 3.625110 -0.987794 198 198 190
-1.008058 3.065224 -1.612039 220 220 208
-3.257156 3.660647 -0.976281 119 118 110
0.368106 1.462087 -1.756475 122 123 125
-2.075622 3.305633 -1.343280 227 225 213
-1.809145 3.195721 -1.429345 243 240 225
0.266036 1.436728 -1.756323 95 95 107
-3.606842 3.738275 -0.949379 118 117 112
-1.126208 3.016490 -1.665197 225 226 208
-3.547274 3.670532 -0.976746 125 124 122
-2.447453 3.334756 -1.282285 110 107 98
0.543313 1.815859 -1.970722 122 118 107
0.554663 1.807996 -1.980516 175 173 158
-2.471322 3.321405 -1.309764 242 239 230
-2.473300 3.327518 -1.311386 242 239 230
-3.644491 3.688669 -1.003254 129 128 123
-3.274261 3.524584 -1.101427 126 125 120
-2.978703 3.445796 -1.188356 134 133 128
-2.978703 3.445796 -1.188356 134 133 128
-2.809332 3.395399 -1.247585 221 219 207
-2.759953 3.354468 -1.267501 139 136 131
-3.416685 3.589116 -1.093822 138 137 133
-1.485633 3.064002 -1.648444 253 251 239
-2.656106 3.336720 -1.310508 233 230 221
-2.324127 3.180406 -1.461313 218 214 205
-2.311095 3.163530 -1.458110 218 214 205
-2.402498 3.174883 -1.442031 209 205 194
-2.256459 3.141982 -1.494908 133 128 122
-2.112281 3.111863 -1.544100 254 251 236
-2.672186 3.265387 -1.389340 213 210 201
-2.874556 3.330027 -1.335455 146 143 134
-3.168069 3.368350 -1.267088 118 118 108
-1.548245 2.948065 -1.734625 218 215 210
-0.422683 1.903331 -1.854096 136 128 109
-2.548083 3.167987 -1.482147 241 239 226
-3.487523 3.463197 -1.243058 120 119 114
-0.433517 1.899657 -1.890239 157 145 129
-3.355859 3.354843 -1.300797 121 120 116
-3.183155 3.299086 -1.346949 138 138 128
-1.739710 2.927980 -1.756516 227 225 210
-3.396762 3.360071 -1.296923 107 106 102
-2.270048 2.992374 -1.680905 239 235 224
-1.929846 2.912174 -1.785121 246 242 230
-1.937832 2.896587 -1.813019 243 240 221
-2.537396 3.030613 -1.645420 224 220 209
-2.410318 2.985598 -1.683687 207 203 192
-2.861573 3.079111 -1.561801 125 123 111
-2.272362 2.979506 -1.737329 123 118 113
-2.467191 3.031490 -1.687032 242 238 228
-2.119742 2.938272 -1.787190 226 223 208
-2.119742 2.938272 -1.787190 226 223 208
-2.374616 2.932432 -1.743385 234 232 218
0.029010 1.904563 -2.256788 99 92 84
-1.914711 2.800914 -1.920269 243 239 227
-1.932473 2.743505 -1.997505 226 222 211
-3.085575 3.025001 -1.685972 241 239 227
-2.588447 2.895809 -1.820820 237 235 221
-2.176316 3.203243 2.564020 148 147 142
0.494321 4.144363 0.824731 132 131 127
-1.660063 4.346346 1.217437 98 99 94
0.349098 4.656127 0.411330 118 119 114
0.168046 4.552885 0.170499 136 137 132
1.507638 4.106167 -0.297203 196 195 190
-2.617521 4.929528 0.923478 109 109 107
2.101721 3.906413 -0.643696 161 158 152
-1.596794 4.790156 0.409297 165 164 159
0.628548 4.142976 -0.385870 150 149 145
-2.636638 5.025346 0.639245 139 140 135
-0.660727 4.350715 -0.064848 183 184 179
-1.827053 4.422532 -0.017217 130 129 124
-1.680784 3.967722 -0.473840 175 172 167
0.014617 1.324973 -1.051294 110 128 143
0.679856 1.424234 -1.307445 161 218 255
-0.290816 1.408076 -1.091618 38 31 40
-0.320055 1.437115 -1.096287 23 13 19
-0.534214 1.643243 -1.123452 127 178 223
0.382678 1.383081 -1.601865 161 161 151
-2.047877 3.259211 -1.393119 195 191 180
-2.809184 3.369935 -1.261309 157 154 149
-3.553756 3.598921 -1.113224 118 117 112
-3.035880 3.317771 -1.310920 150 147 138
-2.261479 3.102268 -1.575109 179 175 163
-2.960656 3.200633 -1.421496 129 126 121
-2.972962 3.245904 -1.420149 129 126 121
-2.523927 3.096766 -1.566151 225 222 207
-1.560268 2.878807 -1.873367 156 156 146
-2.817577 3.156599 -1.518330 123 120 115
-1.598745 2.799503 -1.872948 129 125 122
-0.076273 1.784328 -2.093993 85 85 84
-0.075309 1.792858 -2.097692 85 85 84
-2.788916 3.102158 -1.553439 218 216 204
-2.793777 3.111564 -1.556100 218 216 204
-2.253948 2.943885 -1.762955 180 176 165
-3.394807 3.265956 -1.451099 148 148 138
-2.654884 3.027795 -1.644787 0 0 0
-1.502853 2.753113 -2.015948 0 0 0
-1.210005 2.653680 -2.101740 0 0 0
-2.453383 2.991693 -1.775792 230 227 212
-1.716502 2.748591 -1.971495 159 154 148
-2.952837 3.040728 -1.640037 202 201 182
-2.255581 2.902646 -1.848492 145 141 130
-3.321937 3.124135 -1.566617 134 131 122
-2.601291 2.950191 -1.771482 131 128 119
-1.511030 2.671604 -2.085370 149 145 143
-2.143256 2.805511 -1.912679 193 189 178
-2.735127 2.919857 -1.766385 145 142 135
-1.793297 2.706280 -2.043625 0 0 0
-1.308044 2.578142 -2.191454 0 0 0
-1.773333 2.648075 -2.062762 0 0 0
-1.670971 3.148301 2.500692 175 174 169
-1.878239 3.457064 2.240123 0 0 0
-1.401918 3.473464 1.962268 152 151 146
-1.401918 3.473464 1.962268 152 151 146
1.390463 3.768129 0.875295 118 117 113
-1.935752 4.348718 1.309580 82 82 80
3.552571 3.855051 -0.402592 150 149 145
2.254728 4.350554 0.047244 149 148 144
-2.433229 4.425962 1.372477 118 119 114
-2.428121 4.406387 1.366316 118 119 114
2.756004 4.306457 -0.142146 169 168 164
-1.885030 4.567543 0.953099 127 127 124
1.541816 4.016966 -0.160793 0 0 0
1.640399 4.401867 -0.171287 133 132 127
1.640399 4.401867 -0.171287 133 132 127
-2.597552 4.951181 0.578219 152 153 148
-0.279046 3.882836 -0.650944 129 128 123
0.319926 3.518361 -0.993358 189 188 183
0.123641 1.371318 -1.056184 59 64 68
-1.849322 3.925223 -0.616402 193 192 187
0.842311 1.524873 -1.466032 121 170 218
-0.432120 1.603285 -1.105909 139 193 238
-0.591460 1.649274 -1.142244 140 192 231
0.551929 1.453059 -1.649065 60 98 137
-0.209465 1.412076 -1.555074 135 132 123
0.578559 1.780297 -1.910796 26 53 86
0.231738 1.414281 -1.749016 73 125 168
-0.278507 1.468820 -1.654997 133 132 120
-0.201314 1.493063 -1.711197 21 50 80
-0.001896 1.602646 -1.922211 94 87 77
0.052142 1.736680 -2.017946 133 127 115
-0.097356 1.801025 -2.128438 132 129 114
0.199639 2.100760 -2.411250 84 85 80
0.009014 2.117805 -2.393571 108 104 95
-1.366066 3.108494 2.278444 138 137 133
-1.906906 3.247395 2.475435 0 0 0
-1.784088 3.436023 2.058843 143 142 138
-2.405439 3.877743 1.933631 66 65 63
-1.862741 3.828919 1.686854 107 107 105
-2.091660 3.908244 1.709147 97 96 92
-0.226858 4.213151 0.877519 78 77 75
1.353362 4.561785 0.141352 166 165 160
-0.773174 4.812259 0.489801 28 28 26
1.410919 3.874276 -0.702133 166 163 156
-3.341927 5.344550 0.829593 83 83 83
1.584627 3.721371 -0.853538 193 190 181
-3.239192 4.814219 0.329374 133 133 131
-1.593594 4.128640 -0.354119 99 99 89
-2.521632 4.343471 -0.086543 157 158 152
-2.106307 4.174449 -0.344409 207 206 201
-0.894142 3.784043 -0.827975 203 203 193
-0.175905 1.412114 -1.005509 244 244 206
-3.230199 4.332533 -0.206581 112 113 107
-0.112378 1.386227 -1.068457 37 37 35
-0.197622 1.379334 -1.073067 43 32 31
-1.505495 3.496277 -1.117455 151 150 145
1.799244 2.530766 -2.254804 159 155 144
-0.944653 3.188340 -1.486337 156 155 150
-3.655736 3.699080 -0.972970 253 250 241
0.081797 1.474403 -1.747660 127 194 253
-0.344104 1.597390 -1.637068 129 128 123
-0.390274 1.912741 -1.828403 107 98 83
-0.391570 1.903851 -1.853968 115 106 89
-0.587813 2.082050 -1.912559 91 110 119
0.140059 1.895954 -2.136679 176 181 178
-0.003778 1.679063 -2.044905 4 9 75
-0.021979 1.771939 -2.095690 105 107 92
0.029322 1.798083 -2.144940 132 125 119
-1.016326 2.553150 -2.224020 124 119 115
-1.122932 2.506700 -2.232853 94 90 87
-1.003350 3.032839 2.413838 146 145 143
-1.074782 3.395735 1.876041 0 0 0
-0.167832 4.262071 0.820113 182 183 177
0.719947 4.755136 0.309378 142 141 136
1.572205 3.928499 -0.473114 142 139 134
1.572205 3.928499 -0.473114 142 139 134
-1.463505 4.553874 0.142349 214 214 204
-1.440313 4.424282 -0.014409 159 158 153
1.064155 3.444382 -1.111126 189 186 181
-0.263958 1.416100 -1.168087 69 148 225
-3.515974 3.799413 -0.854846 138 139 134
-0.195326 1.407834 -1.597288 152 152 142
-0.058903 1.712351 -1.954529 96 89 79
-1.093081 2.773384 -1.969933 137 134 129
1.479971 2.133767 -2.715356 0 0 0
-0.619091 3.590977 1.529608 165 166 161
-1.427661 4.768821 0.611332 131 131 129
2.403536 3.324210 -1.353117 210 207 198
1.912584 3.264170 -1.332790 207 205 193
-2.011190 3.895504 -0.610439 0 0 0
1.839962 2.759076 -1.946010 178 175 166
2.168771 2.604196 -2.175543 202 199 190
0.500683 1.419417 -1.631086 41 72 103
0.299053 1.341371 -1.596357 69 83 86
-2.633177 3.380521 -1.222063 150 147 142
-1.566062 2.998490 -1.652585 0 0 0
0.177660 1.771342 -2.090702 0 0 0
-1.989782 2.958917 -1.708215 154 150 139
-1.991814 2.973009 -1.711639 154 150 139
-2.111798 2.835215 -1.772888 0 0 0
-0.168147 2.324926 -2.503655 33 34 29
-2.691685 4.374554 1.570787 0 0 0
2.773481 4.502704 0.063065 164 165 160
1.338713 4.460374 0.196194 160 159 154
0.014906 4.597051 0.297275 0 0 0
-0.118416 4.635382 0.314804 0 0 0
-1.905239 3.122983 2.609814 108 109 104
3.724241 3.079636 0.853781 97 97 95
-0.993480 3.448492 1.809880 0 0 0
-0.976770 3.494804 1.838585 149 149 147
1.129918 3.442225 1.125089 0 0 0
0.491077 4.607200 0.251555 191 192 187
-0.129034 1.398966 -1.597460 24 63 104
-0.238720 1.522761 -1.689184 82 87 90
-0.828736 2.639757 -2.169369 98 95 86
-0.684472 2.979926 2.233422 0 0 0
-2.234883 4.336979 1.414076 85 85 85
-2.381858 4.436966 1.347217 163 160 155
0.220139 4.564853 0.520193 0 0 0
-0.442248 1.672976 -1.618485 29 55 80
-1.226675 3.157347 2.444952 113 112 110
-2.953734 4.754327 1.389767 88 88 86
-0.688972 4.606323 0.292322 156 157 152
0.063976 1.277384 -1.414800 29 79 132
0.347313 1.379951 -1.670667 2 4 3
-1.833227 3.300742 2.330405 153 152 150
-0.283680 1.477166 -1.576001 2 4 3
0.689161 1.542553 -1.652561 40 82 130
4.060422 3.861074 -0.483924 106 103 98
-0.890997 4.426626 0.771027 155 156 150
-2.700577 4.132289 1.754636 84 84 82
-1.874912 3.156301 -1.497787 74 74 70
-2.161285 2.974138 -1.693942 110 107 99
-1.820668 2.789883 -1.933840 244 242 230
-0.751198 4.761477 0.518424 75 75 73
-2.373164 3.086175 -1.586052 52 50 47
-2.155809 3.324837 -1.303026 220 217 208
-2.652681 3.167836 -1.428452 0 0 0
-2.677255 3.351120 -1.256129 234 232 221
-2.222479 2.890313 -1.822330 170 167 158
-0.484412 4.578235 0.588852 96 96 95
-3.556435 4.567201 -0.075147 92 92 90
-1.850523 2.871213 -1.810465 102 102 92
-2.521561 3.092636 -1.565250 239 237 220
-2.143623 3.163972 -1.486536 213 209 198
-1.862561 2.936388 -1.769780 99 96 87
-1.845810 2.956971 -1.711056 145 142 135
-1.802862 3.609572 -0.948760 83 81 74
-2.294301 3.591884 -0.962137 130 128 122
-1.471876 2.625346 -2.128485 165 162 159
-2.654777 4.338733 1.570212 89 88 86
-3.457253 5.057350 0.475607 68 70 68
2.260099 3.473314 -1.106167 142 140 136
-1.310239 2.584699 -2.195570 105 105 102
-0.457941 4.291964 -0.141953 72 72 71
-2.914335 4.420002 1.684712 79 79 79
-0.739675 3.880728 1.267652 60 60 59
-0.877730 4.641347 0.605000 74 74 74
-2.039190 3.536796 -1.022631 117 114 109
-0.131994 4.708865 0.322956 148 149 145
1.452762 3.662902 -0.877822 156 153 148
1.449373 2.662655 -2.131535 219 215 206
1.305306 2.629110 -2.197726 254 253 238
-2.951319 3.469677 -1.167565 228 225 220
-0.282575 1.542487 -1.701466 54 88 123
-0.222507 1.715233 -1.848716 109 104 95
-3.073010 3.367353 -1.312339 212 210 198
-1.227123 3.146489 -1.584132 127 126 124
-1.227123 3.146489 -1.584132 127 126 124
-0.733599 2.587785 -2.196919 114 110 101
-0.847725 2.541366 -2.236722 82 78 69
-3.344503 3.115567 -1.622994 121 121 111
-0.460227 3.984780 -0.519965 184 183 178
-0.227111 1.521071 -1.674134 152 153 145
3.788857 3.922007 -0.466977 104 101 96
-0.149903 4.770469 0.490312 97 96 92
1.551139 4.408005 -0.211946 0 0 0
-1.734634 4.899174 0.529728 188 189 184
0.463213 1.402170 -1.185481 101 180 246
-0.071167 1.652049 -1.932056 96 89 79
-1.509241 3.141837 2.411057 211 208 203
2.061620 4.448339 0.128521 131 128 120
-2.285426 2.673012 -2.038223 120 117 113
-0.702522 2.065015 -2.815071 81 80 76
-1.701667 2.393066 -2.364375 112 109 106
-0.802638 2.053392 -2.829795 92 91 86
0.028637 4.476454 0.064514 114 114 114
-3.621461 4.671901 0.222808 145 145 141
-0.019226 3.440114 1.571830 109 107 110
-1.598518 3.516882 1.972684 79 78 77
-0.728689 3.502528 1.690709 101 101 102
-3.565656 3.937777 1.167130 123 124 121
-0.440746 3.130859 2.163606 203 203 193
-0.217377 3.324898 1.774925 110 110 108
0.172751 1.714960 -1.997612 144 142 135
-0.596631 2.468135 -2.374716 46 43 41
1.124852 3.575563 -1.069624 187 188 183
0.790343 1.523439 -1.354685 70 117 163
0.366190 2.462772 -2.441512 48 48 51
-0.510407 4.590803 0.179832 171 172 166
-1.413076 3.984128 -0.428155 203 200 191
0.343690 1.383428 -1.143065 0 0 0
-0.205621 1.411618 -1.074177 16 9 6
-0.915064 3.565252 -1.024674 195 194 189
-1.865929 3.744531 -0.841462 151 148 139
-1.593195 3.538187 -0.977253 214 211 202
-1.426754 3.506100 -1.115132 138 137 132
-3.488983 4.160953 -0.475428 179 180 175
-1.319051 3.411012 -1.150875 145 144 139
-1.923141 3.522320 -1.004716 199 197 185
-1.960617 3.582802 -1.020359 213 211 199
-1.457888 3.362742 -1.190403 137 136 131
-1.175024 3.344300 -1.317740 156 155 150
-1.635126 3.385927 -1.165689 144 141 132
-3.159261 3.885429 -0.695528 113 112 108
-3.536004 4.031396 -0.596827 117 117 114
-2.500629 3.640634 -0.936856 203 200 191
1.351907 2.734889 -2.161030 208 205 196
-1.764311 3.452901 -1.198185 0 0 0
-1.618165 3.868132 -1.339834 0 0 0
-3.282460 3.870031 -0.735908 180 179 174
-1.788558 3.422853 -1.195309 0 0 0
0.291639 1.421270 -1.667160 115 119 122
-1.133631 3.213241 -1.428454 141 140 135
1.796710 2.604280 -2.354491 199 196 187
0.382835 1.450549 -1.747094 102 106 107
-3.524040 3.903017 -0.745657 104 105 101
-2.968483 3.653392 -0.924973 133 133 123
-2.268277 3.447131 -1.149947 205 202 193
-3.606637 3.930495 -0.759673 111 111 103
-3.067034 3.684095 -0.911356 136 135 130
0.279324 1.491366 -1.762191 251 251 243
-1.928004 3.370353 -1.286438 199 196 187
-1.798314 3.300866 -1.324000 212 210 198
-1.457950 3.211998 -1.436351 143 140 131
-3.649390 3.908254 -0.780026 125 126 118
-1.860263 3.287695 -1.312096 143 140 131
-3.413647 3.779236 -0.858339 114 113 108
-3.483395 3.809679 -0.851243 188 187 182
-1.490310 3.238570 -1.459012 215 213 198
-1.165347 3.089736 -1.552437 158 157 152
-2.259545 3.382184 -1.233386 147 145 133
1.598327 2.394107 -2.405935 137 134 125
-3.103398 3.625110 -0.987794 182 181 176
-2.664721 3.482180 -1.125917 203 200 191
-1.911030 3.277980 -1.357209 215 213 198
-3.451021 3.728208 -0.907922 112 111 108
-2.849646 3.458845 -1.152356 198 195 186
-2.849646 3.458845 -1.152356 198 195 186
-3.310379 3.630701 -1.022207 116 115 110
-1.308535 3.070560 -1.633829 233 232 227
-1.930671 3.194908 -1.440173 141 139 127
-1.390055 3.045449 -1.610705 149 149 142
-3.265983 3.587435 -1.051191 132 131 126
0.994673 2.498512 -2.351053 145 142 133
-2.425454 3.300758 -1.313060 191 188 179
-2.929770 3.463713 -1.167642 149 149 137
-1.055215 2.936909 -1.733093 131 128 123
-3.549770 3.683985 -1.005817 203 203 193
-3.635405 3.697772 -0.980553 150 147 138
-2.882291 3.418340 -1.198967 113 112 110
-2.898154 3.412661 -1.199695 212 211 206
-1.063936 2.922511 -1.761535 0 0 0
-3.102728 3.486478 -1.146420 144 141 136
-3.187034 3.493056 -1.140119 113 112 107
-2.554698 3.283029 -1.347111 130 127 122
-3.669303 3.675801 -1.057753 109 106 97
-1.216655 2.994013 -1.809523 138 137 132
-2.897666 3.357950 -1.276539 157 154 145
-2.320112 3.185169 -1.460581 221 217 206
-3.341382 3.500797 -1.177005 125 124 119
-2.216130 3.148712 -1.501566 119 114 108
-3.213682 3.453468 -1.212592 112 112 102
-1.572888 2.993293 -1.709358 135 133 121
-1.940439 3.081178 -1.600182 225 222 205
-0.464022 1.919773 -1.872185 139 130 113
-2.672186 3.265387 -1.389340 214 211 202
0.153772 1.767588 -2.059660 132 129 121
-3.471948 3.526753 -1.167699 113 112 107
-2.737511 3.260023 -1.373924 117 114 105
-2.111901 3.093386 -1.572897 209 205 193
-2.113729 3.099171 -1.575873 209 205 193
-2.667187 3.211041 -1.408435 217 214 205
-2.992080 3.314281 -1.316486 127 125 118
-1.799236 3.008896 -1.682583 222 219 204
-2.228310 3.098614 -1.550191 153 149 138
-3.212011 3.391600 -1.263610 119 119 109
-3.509413 3.490122 -1.188168 98 97 92
-1.672700 2.949432 -1.740276 145 143 131
-1.155794 2.832412 -1.899493 146 143 134
-2.922243 3.296329 -1.372656 218 215 206
-2.699683 3.212651 -1.434645 105 102 97
-2.228570 3.085904 -1.586886 151 147 136
-2.768772 3.234699 -1.422300 233 230 221
-2.795676 3.243872 -1.418417 122 119 110
-3.429684 3.427313 -1.245475 90 89 85
-3.464284 3.407228 -1.238750 98 97 92
-3.209673 3.367121 -1.322054 190 187 178
-2.239676 3.062789 -1.605408 125 121 110
-1.750744 2.931875 -1.750190 226 223 214
-3.100120 3.315554 -1.355205 116 113 108
-3.373960 3.406079 -1.288424 229 229 220
-3.717669 3.546678 -1.200741 251 251 241
-2.977163 3.272474 -1.393112 122 119 110
-2.478144 3.115196 -1.559312 112 108 99
-3.026748 3.272101 -1.400055 241 239 227
-3.015817 3.230149 -1.401569 241 239 227
-2.120171 2.991902 -1.669760 130 128 116
-2.415939 3.083685 -1.597300 230 226 213
-2.549405 3.111488 -1.561011 142 138 127
-1.836225 2.931654 -1.776631 223 220 205
-2.398864 3.075846 -1.609294 211 207 196
-2.907959 3.200873 -1.460788 246 244 233
-2.097721 2.990978 -1.709961 223 220 205
-2.097721 2.990978 -1.709961 223 220 205
-2.311664 3.033403 -1.647622 198 194 182
-3.293787 3.303446 -1.361593 220 217 208
-1.843405 2.907115 -1.793858 190 186 174
-3.020550 3.149632 -1.433898 228 225 216
-2.576730 3.097500 -1.588939 205 201 192
-3.106211 3.225975 -1.425632 0 0 0
-3.151223 3.223243 -1.425674 107 103 99
-3.293820 3.267222 -1.385244 213 210 201
-2.533850 3.074192 -1.615283 211 207 196
-3.233795 3.237917 -1.416027 96 93 88
-2.746042 3.095451 -1.558457 231 227 216
-2.838229 3.103481 -1.542177 207 205 193
-2.361600 2.973780 -1.689328 210 206 195
-2.071249 2.915746 -1.807487 0 0 0
-1.988939 2.887017 -1.831892 218 216 204
-3.061407 3.169029 -1.519790 223 220 211
-3.275302 3.120701 -1.451125 228 228 218
-3.067556 3.046406 -1.509180 105 104 102
-2.623742 3.016295 -1.677401 0 0 0
-2.081153 2.857238 -1.835997 184 180 169
-3.106059 3.121444 -1.536353 214 211 202
-1.909633 2.828758 -1.893530 237 234 219
-1.913060 2.848719 -1.897958 237 234 219
-2.975203 3.076407 -1.578122 200 198 186
-2.975203 3.076407 -1.578122 200 198 186
-1.734561 2.770205 -1.946135 249 248 227
-1.989621 2.831127 -1.878274 218 216 204
-2.685661 2.971736 -1.696476 215 214 196
-2.840357 3.077507 -1.678436 74 70 67
-2.840357 3.077507 -1.678436 74 70 67
-2.098798 2.842621 -1.899514 220 218 206
-3.354830 3.187352 -1.550321 240 241 223
-3.373190 3.147165 -1.533980 194 194 184
-1.841763 2.783998 -1.992683 0 0 0
-2.400954 2.893986 -1.825928 225 221 210
-1.881995 2.775445 -1.984410 239 237 222
-3.444915 3.141717 -1.513881 229 228 223
-1.575221 2.678011 -2.078589 247 244 235
-2.187298 2.831836 -1.908954 254 252 226
-2.581048 2.913073 -1.798672 252 249 238
-2.068843 2.814380 -1.961303 0 0 0
-2.539982 2.889539 -1.829374 204 200 189
-2.552122 2.917901 -1.848431 106 101 96
-2.516823 2.907028 -1.873489 218 215 200
-2.341091 2.861735 -1.923455 232 228 217
-2.980461 2.990331 -1.729768 79 75 74
-2.918399 2.971958 -1.752705 94 90 89
-1.392222 2.579288 -2.198455 238 238 228
-1.794333 2.693013 -2.091099 254 250 238
-2.546970 2.853342 -1.867600 111 107 98
-2.944309 2.966017 -1.761992 128 125 114
-2.635813 2.858782 -1.852553 108 104 93
-2.768691 2.894374 -1.824899 234 230 219
-0.504105 2.370033 -2.504980 65 64 59
-1.736586 2.661339 -2.145518 250 248 235
-1.980188 2.659414 -2.059102 128 124 112
-3.192723 2.948833 -1.735326 243 243 231
-2.738041 2.850837 -1.887847 242 239 224
-1.459228 2.552957 -2.279296 219 216 207
-2.654763 2.810758 -1.920178 253 250 238
-2.963306 2.848290 -1.823619 250 249 232
-1.728858 2.572031 -2.196926 254 251 236
-2.103522 2.712646 -2.107217 107 103 92
-2.523844 2.819417 -1.994365 247 245 233
-2.745261 2.817944 -1.922782 73 68 62
