ply
format ascii 1.0
element vertex 1179
property float x
property float y
property float z
property uint8 red
property uint8 green
property uint8 blue
end_header
-20.984129 -0.117972 -5.694014 181 178 163
-19.189068 -1.276574 -6.674976 181 178 161
4.809656 13.577727 0.517624 169 163 151
3.682590 12.616489 0.029316 210 204 192
4.350684 12.487207 -0.263715 200 193 183
2.834932 11.840544 -0.486830 211 207 195
3.734157 11.637486 -0.809401 215 209 197
-4.127485 10.725226 -0.315233 205 199 185
2.747252 9.561693 -2.109715 228 222 210
2.887343 8.713696 -2.845671 224 217 207
-3.768127 8.649696 -1.851197 212 206 194
-3.623944 8.340242 -2.045462 121 115 103
-2.931002 7.933248 -2.476541 215 209 197
0.914007 7.256850 -3.551507 227 221 209
-3.237810 7.280408 -2.919122 209 203 191
0.698845 7.168027 -3.563177 177 169 158
0.614013 7.165971 -3.562896 224 216 205
-3.874231 7.162679 -2.901912 206 198 185
0.843868 7.096324 -3.636532 158 152 140
0.843868 7.096324 -3.636532 158 152 140
0.923221 7.074003 -3.666298 236 232 221
-3.572924 7.094575 -3.018961 127 121 109
1.482257 7.030936 -3.802000 219 212 202
0.375032 6.965449 -3.658904 217 211 199
0.762098 6.986039 -3.722567 232 224 213
1.153352 6.966436 -3.794785 224 220 211
1.154464 6.974386 -3.795710 224 220 211
1.134772 6.864954 -3.842776 222 218 207
0.602001 6.867701 -3.768380 127 122 110
1.038766 6.782903 -3.895151 130 124 112
-2.425581 6.756905 -3.418267 222 216 204
1.857393 6.708039 -4.071641 230 223 213
1.097274 6.714014 -3.955879 169 165 156
-3.009054 6.692704 -3.387513 217 211 199
-2.326708 6.681641 -3.486807 219 213 201
-2.956720 6.687596 -3.392429 204 198 186
0.582189 6.592144 -3.966898 159 153 139
0.315278 6.564129 -3.943924 224 221 204
2.119662 6.535808 -4.227249 145 138 128
1.354164 6.501542 -4.144982 136 132 123
0.530466 6.485384 -4.036765 173 165 154
-2.295087 6.454486 -3.648424 220 213 197
-2.685408 6.477275 -3.595711 111 104 94
-2.685408 6.477275 -3.595711 111 104 94
-4.036070 6.475797 -3.412239 190 182 169
-3.851641 6.467242 -3.452562 207 201 189
1.472314 6.363980 -4.259375 161 154 146
2.829980 6.294787 -4.468455 206 199 189
0.447229 6.334672 -4.137294 226 218 207
-2.378962 6.202856 -3.826696 154 147 131
-3.122808 6.185385 -3.729247 136 128 115
-3.302193 6.166938 -3.724867 197 191 177
-2.682964 6.110231 -3.851716 194 188 174
-2.267778 6.083295 -3.922329 207 199 187
0.223582 6.025826 -4.322090 136 128 117
0.534688 6.018025 -4.366771 209 203 191
-2.571637 5.913362 -4.007742 200 192 178
1.434083 5.867985 -4.618463 141 134 124
1.622718 5.716132 -4.732508 220 214 202
-3.052782 5.699233 -4.105539 195 189 175
-3.140000 5.655252 -4.114806 194 186 173
-0.135896 5.614023 -4.568818 189 181 168
-2.234643 5.621554 -4.275771 201 195 181
-3.083988 5.627329 -4.152542 141 133 122
-0.051648 5.582534 -4.606983 119 113 101
0.214571 5.568452 -4.660450 131 125 113
-2.269485 5.576112 -4.299708 209 203 191
-0.624997 5.555020 -4.552470 123 117 103
-0.607705 5.544455 -4.560331 184 178 164
-0.447908 5.546496 -4.585231 135 127 116
0.380614 5.532596 -4.713749 209 203 191
-0.155999 5.499687 -4.654207 120 113 102
14.125916 22.369116 9.087210 253 250 247
14.682373 22.457251 8.995931 165 162 149
12.476851 25.143087 8.929228 156 156 144
12.200736 24.269295 8.558774 154 153 141
12.755864 19.967785 6.409518 211 203 190
13.766846 23.697393 7.937101 139 139 131
12.296652 24.238234 8.406937 169 166 159
11.809169 22.128527 6.687093 137 133 124
4.548771 15.021089 1.640301 159 153 141
3.609233 14.523584 1.327247 200 194 182
6.059315 13.570583 0.312532 208 202 190
6.049039 13.532949 0.308657 208 202 190
7.549487 12.768598 -0.203339 193 186 178
4.095818 13.089052 0.270852 211 205 193
3.874228 13.011654 0.242098 220 214 202
-6.255360 12.538946 1.301035 167 161 149
5.250506 12.182316 -0.552889 208 202 190
2.707259 12.255317 -0.200777 210 204 192
5.646899 11.589716 -0.817878 159 152 142
-5.642980 12.005594 0.883460 200 194 182
6.470515 11.619573 -1.006925 148 141 131
3.203327 11.782108 -0.613704 129 123 109
3.203327 11.782108 -0.613704 129 123 109
3.581870 11.775826 -0.653292 154 148 134
-3.888981 11.372292 0.287177 179 173 159
3.827816 11.589803 -0.846982 210 204 192
3.821270 11.364352 -0.960496 210 204 192
3.816718 11.346034 -0.962246 210 204 192
-5.747895 11.001244 0.412352 151 145 133
2.843678 11.297978 -0.890653 212 206 194
5.411825 11.019347 -1.383644 199 191 180
3.141524 10.981106 -1.107375 215 209 197
-6.065532 10.866556 0.242467 156 150 138
2.632854 10.748229 -1.256728 160 154 142
-4.829598 10.715467 -0.191852 157 149 138
-3.976956 10.667390 -0.372567 212 206 192
3.471569 10.411841 -1.603225 145 138 128
5.560506 10.259032 -1.980165 214 210 198
3.310577 10.279506 -1.689459 144 142 130
-3.861599 10.206508 -0.673856 205 199 187
-3.565498 10.013522 -0.772197 139 133 121
-3.565160 10.055911 -0.770336 139 133 121
-4.679706 10.223445 -0.598609 159 153 141
4.037113 9.999671 -1.977641 209 202 192
-3.591021 9.752953 -0.938489 209 203 191
-4.041049 9.879396 -0.875928 137 131 119
3.491693 9.880039 -2.040411 129 123 111
-4.990475 9.915498 -0.779324 152 146 134
3.504989 9.439898 -2.223715 215 209 197
5.057206 9.505099 -2.471875 210 203 193
2.721889 9.499510 -2.173013 169 163 151
-3.710303 9.297251 -1.298971 206 200 188
2.061110 9.195571 -2.219960 166 160 148
-3.611845 9.313140 -1.388983 205 199 187
-4.681479 9.281977 -1.258877 193 187 175
1.963287 9.137884 -2.299915 216 210 198
-3.207570 8.985288 -1.591049 196 190 178
-3.609071 9.055602 -1.576325 201 195 183
-5.652187 8.745587 -1.336837 154 146 133
-3.439320 8.943607 -1.675610 199 193 181
-3.615239 8.854933 -1.723303 203 196 186
-4.971209 8.611472 -1.535495 147 141 129
-3.094263 8.705746 -1.901191 216 210 198
-3.762759 8.661972 -1.796445 142 136 124
4.304363 8.570014 -3.025494 194 186 173
4.182417 8.499141 -3.055635 169 161 148
2.260660 8.483430 -2.839673 214 208 196
-3.187117 8.545432 -2.011405 213 207 195
-5.293405 8.515323 -1.703651 140 133 117
2.566434 8.564190 -2.901598 210 204 192
4.041477 8.297356 -3.169017 211 203 192
4.054088 8.330575 -3.171220 211 203 192
-4.170442 8.524877 -1.945227 218 212 200
-3.704194 8.329890 -2.060539 197 189 178
-3.616456 8.339962 -2.096248 190 184 172
-3.094474 8.243620 -2.236112 158 152 140
-3.721107 8.145642 -2.242076 160 153 142
-4.624155 7.982735 -2.195695 205 199 187
-5.102223 7.950978 -2.164082 213 206 190
-3.449694 7.975235 -2.425530 216 210 198
-3.422290 7.869344 -2.428895 216 210 198
-3.781400 7.844029 -2.441874 203 197 185
-4.518501 7.803026 -2.342468 196 190 176
3.656694 7.694528 -3.594122 211 204 194
-3.896169 7.792380 -2.466165 197 190 178
-3.352760 7.750436 -2.561702 209 202 192
1.921919 7.575960 -3.537171 218 211 201
0.943016 7.418968 -3.403926 229 225 213
-3.939218 7.466478 -2.686182 198 190 179
2.430589 7.416366 -3.702469 137 130 120
0.644331 7.295398 -3.481668 205 199 185
-3.789569 7.342406 -2.830389 207 199 186
-3.789569 7.342406 -2.830389 207 199 186
-3.576905 7.282033 -2.888347 205 197 184
0.528773 7.194108 -3.542547 148 140 129
2.991011 7.099180 -3.936854 128 121 111
-2.586783 7.062048 -3.172899 216 212 200
-4.064403 7.063686 -2.949795 185 177 166
-3.511778 7.063706 -3.042114 131 125 113
3.150107 6.975325 -4.044552 217 213 202
-2.742548 7.029656 -3.198083 221 215 203
2.063534 6.965585 -3.931236 219 212 202
3.431814 6.893992 -4.146446 214 207 196
-2.606623 6.982059 -3.242084 216 212 200
-2.813700 6.988291 -3.230940 229 223 211
2.199904 6.956890 -3.998521 118 111 101
1.987382 6.938216 -3.988319 215 208 198
-4.431713 6.863491 -3.015988 203 195 182
-2.427447 6.877475 -3.331007 218 212 200
2.845667 6.793994 -4.134619 159 152 142
-3.364272 6.866108 -3.204636 132 126 114
1.168204 6.771758 -3.936644 226 222 213
-2.847315 6.793950 -3.332985 214 208 196
2.371611 6.756906 -4.128331 212 204 193
0.633336 6.685743 -3.880459 219 213 201
-3.324157 6.744506 -3.298319 189 185 173
-3.097017 6.737455 -3.339377 204 198 186
-2.954895 6.817421 -3.390683 141 135 123
2.621622 6.611769 -4.227726 118 109 100
2.721992 6.654704 -4.266692 122 114 103
0.144015 6.599297 -3.880065 140 132 119
2.413163 6.586792 -4.224866 138 130 119
2.498078 6.593531 -4.247500 228 219 210
-2.811993 6.643670 -3.449995 147 141 129
2.837451 6.546470 -4.319745 213 207 193
-2.536322 6.622195 -3.527938 205 197 186
2.310684 6.523499 -4.253335 209 200 190
-3.313390 6.599216 -3.413670 198 192 176
-3.313390 6.599216 -3.413670 198 192 176
3.310532 6.580006 -4.422742 204 197 187
2.641671 6.536288 -4.317997 224 215 206
2.642705 6.534577 -4.316788 224 215 206
-2.411019 6.579827 -3.557947 199 191 178
-3.139965 6.565095 -3.487779 142 136 124
0.309166 6.490052 -3.998121 168 165 148
-0.046031 6.485983 -3.948940 213 205 192
2.430537 6.482218 -4.322822 214 205 196
-2.903003 6.522083 -3.521736 201 193 182
0.732741 6.477037 -4.074593 226 219 209
0.733118 6.491973 -4.079358 226 219 209
0.185980 6.437508 -4.024254 231 224 207
-4.211095 6.420361 -3.399561 125 119 105
2.912373 6.358585 -4.497034 212 205 195
0.255087 6.320405 -4.109754 217 210 194
-2.858838 6.382307 -3.651624 207 201 189
-2.373665 6.343212 -3.719213 205 197 184
2.386775 6.288288 -4.443030 221 213 202
2.725104 6.263907 -4.495622 212 206 192
2.737906 6.239796 -4.511127 129 123 111
1.997241 6.306698 -4.409047 211 205 191
-2.292809 6.306564 -3.768478 148 140 127
-2.273357 6.274707 -3.795135 202 194 183
2.219529 6.193385 -4.477093 146 138 127
0.830146 6.234923 -4.275386 163 159 150
1.708031 6.225541 -4.411657 229 222 212
-4.125474 6.298689 -3.546448 109 101 90
-4.100344 6.301313 -3.562504 207 199 188
-2.388163 6.233430 -3.806792 218 211 195
-3.441747 6.268732 -3.659677 202 196 182
1.255243 6.217309 -4.375575 254 251 245
-3.841771 6.220552 -3.601257 187 181 169
-2.621593 6.210435 -3.793558 134 128 116
0.715878 6.173208 -4.300689 233 226 218
-2.528972 6.201249 -3.812695 148 142 130
-2.648398 6.202250 -3.797117 216 210 198
-4.106437 6.224850 -3.588063 131 124 111
-2.326957 6.206676 -3.850325 187 180 167
2.161038 6.135193 -4.530342 227 221 209
1.499124 6.144163 -4.429164 238 232 220
2.721962 6.137846 -4.631115 135 128 118
-2.713928 6.162069 -3.811092 191 185 171
2.654061 6.049394 -4.615682 223 219 208
-3.651477 6.173946 -3.667113 114 106 93
-3.456330 6.167887 -3.715043 201 193 180
-3.969901 6.135348 -3.642432 194 188 176
1.751448 6.097409 -4.504836 137 131 119
1.421769 6.071905 -4.462752 227 220 210
0.521052 6.084303 -4.337447 214 206 195
2.657578 5.990184 -4.651698 219 212 202
-3.639817 6.088563 -3.707297 129 121 108
1.971901 6.031259 -4.586693 115 107 96
-2.926868 6.068050 -3.852024 145 137 124
1.898493 5.990942 -4.610054 225 219 207
2.783496 5.922991 -4.744696 216 209 199
1.782833 5.946745 -4.607645 224 218 206
1.180698 5.951204 -4.531370 202 195 187
2.217101 5.867687 -4.689656 153 144 135
-3.854733 5.922957 -3.799162 217 209 196
1.832243 5.846303 -4.650633 234 228 216
-2.359642 5.910264 -4.036283 132 124 113
1.997285 5.799587 -4.695512 218 210 199
2.657317 5.747292 -4.797006 230 223 213
-2.217252 5.893257 -4.084912 116 108 95
2.476261 5.741670 -4.796477 220 213 203
1.079248 5.834690 -4.599647 159 152 142
2.286216 5.783579 -4.790761 218 210 200
2.300386 5.810517 -4.800204 218 210 200
1.459004 5.775586 -4.670175 216 210 196
-3.509858 5.799396 -3.923776 129 121 108
-3.162035 5.819511 -3.976229 203 195 183
-2.805059 5.842217 -4.039677 194 186 173
0.804256 5.789368 -4.583422 209 202 192
2.171967 5.724743 -4.840872 161 154 144
0.704945 5.715528 -4.620094 147 140 130
2.530710 5.698866 -4.921050 211 204 195
1.194317 5.673214 -4.729359 202 195 185
-3.805160 5.679972 -3.981530 186 178 167
1.215497 5.654760 -4.743314 144 137 127
1.008908 5.649661 -4.720986 217 211 199
1.328037 5.637978 -4.774296 121 115 103
2.599763 5.358422 -5.002028 225 216 207
2.680789 5.513258 -5.066513 228 219 212
1.030071 5.493768 -4.816176 200 195 183
-2.588068 5.513474 -4.292634 198 190 179
13.281050 22.171953 10.462051 41 41 43
12.827826 21.993576 9.816216 190 186 190
15.122230 22.667143 9.310050 7 8 6
13.160377 21.004812 8.245527 233 227 220
13.715085 22.150902 8.773021 107 110 101
13.620868 21.853708 8.222202 24 23 14
12.272926 21.495630 8.142520 202 201 203
12.272926 21.495630 8.142520 202 201 203
13.731303 22.265297 8.180516 2 4 2
11.838917 21.273649 6.885834 253 255 249
14.833260 24.275005 7.622279 182 180 169
11.855090 21.473009 6.775822 218 215 208
4.273882 14.552254 1.307852 199 193 181
4.461319 12.198144 -0.406173 199 193 181
3.268254 12.185722 -0.261524 216 210 198
-6.740590 11.494847 0.969427 159 155 143
-7.027691 11.938798 1.090826 204 200 188
-6.806302 11.481263 0.962530 204 200 188
-6.318935 11.975270 0.980225 198 190 179
-6.396026 11.712363 0.810068 153 147 135
-6.378282 11.644617 0.698761 192 186 174
-4.558148 11.667934 0.444819 166 162 150
4.744587 11.118333 -1.239771 211 203 192
-6.453121 11.025223 0.270334 145 139 127
-3.980730 10.912145 -0.178535 162 156 144
-3.977014 10.902143 -0.175449 162 156 144
2.519388 10.940089 -1.152184 199 193 181
-5.042220 10.812901 -0.087897 153 149 137
5.670491 10.566457 -1.804140 186 180 168
3.742314 10.288557 -1.600761 170 164 152
2.645502 10.294687 -1.548338 204 198 186
-6.343266 10.502432 -0.192967 202 196 184
-4.206604 10.145054 -0.640350 201 195 183
-5.454926 9.887222 -0.512802 216 210 198
4.260783 10.009292 -2.007202 157 151 139
3.786186 9.868905 -1.959659 200 194 182
-3.933426 10.052569 -0.799914 155 149 137
-3.377527 9.894427 -1.000088 212 206 194
-5.485644 9.717412 -0.720771 203 197 185
2.880820 9.688075 -2.017189 149 143 131
-4.568070 9.673785 -0.894881 193 187 175
-5.487757 9.798161 -0.765651 142 136 124
-3.796626 9.697326 -1.084612 214 208 196
2.153247 9.504704 -2.073622 222 216 204
2.512897 9.473731 -2.146687 206 200 188
5.084429 9.448133 -2.544643 148 143 132
-4.904863 9.495511 -1.084718 167 161 149
-4.154262 9.429962 -1.241567 139 132 122
-3.357565 9.344605 -1.400816 190 184 170
3.288439 9.089886 -2.445874 205 199 187
-3.519348 9.277141 -1.435157 201 197 185
-3.563377 9.232532 -1.450896 148 142 130
-5.863814 9.026021 -1.237429 153 147 135
-3.400560 8.894442 -1.633655 150 144 132
-3.715022 8.955880 -1.654682 193 186 176
-3.726400 8.982236 -1.650190 193 186 176
-4.841902 8.754210 -1.509687 158 152 140
4.177681 8.680758 -2.886833 200 194 182
-4.076534 8.774870 -1.682705 197 191 179
3.706316 8.646734 -2.872757 172 164 153
3.731306 8.614569 -2.899493 208 200 189
-3.437594 8.600023 -1.891136 149 142 132
-3.435959 8.587722 -1.941372 206 200 188
3.131880 8.451795 -2.941210 146 140 126
3.131880 8.451795 -2.941210 146 140 126
-3.033133 8.543482 -2.025175 151 145 133
-2.977736 8.434917 -2.057160 213 207 195
-5.331908 8.452929 -1.719571 196 189 173
-5.198244 8.321950 -1.757253 198 191 175
-5.198244 8.321950 -1.757253 198 191 175
-2.988491 8.415420 -2.125755 152 146 134
-3.422991 8.332051 -2.075310 160 154 142
4.429237 8.332302 -3.290870 192 186 174
-5.308168 8.230334 -1.819318 204 196 183
-4.726225 8.257745 -1.917454 209 203 189
-4.701029 8.189893 -1.918232 209 203 189
-4.306746 8.420130 -1.995077 212 204 191
3.819167 8.176365 -3.220552 200 196 184
-4.615139 8.252612 -1.949586 211 203 190
-3.404064 8.306693 -2.139357 213 207 195
-3.709627 8.152960 -2.203064 206 198 187
2.745871 8.027930 -3.206328 140 138 126
-3.229851 7.946971 -2.341863 206 200 188
-3.889414 8.093539 -2.252695 223 215 204
3.144130 7.981442 -3.321314 208 201 191
2.660536 7.998504 -3.252398 152 145 135
-3.130810 8.057249 -2.383222 172 166 154
-4.392287 7.966306 -2.248033 205 197 186
-3.986420 8.057772 -2.316842 203 196 185
-4.588731 7.833025 -2.237104 155 147 136
-5.036819 7.901208 -2.207059 164 157 141
-4.077806 7.889894 -2.354226 143 135 124
2.574367 7.809679 -3.366014 197 190 180
2.342229 7.840912 -3.341383 203 196 186
-3.432644 7.910227 -2.484308 200 194 182
1.539261 7.787918 -3.245106 179 172 162
-3.629912 7.838136 -2.492266 137 131 119
-4.770473 7.673186 -2.335801 160 152 141
3.551960 7.621139 -3.651376 144 140 129
3.609994 7.499939 -3.754805 131 124 116
4.028074 7.503983 -3.834970 209 203 191
-3.431727 7.545447 -2.742008 197 191 179
-3.536788 7.493648 -2.741569 156 148 137
2.018705 7.350118 -3.627762 154 150 139
-4.826544 7.337190 -2.590550 146 138 125
-4.842425 7.383762 -2.591738 146 138 125
-4.534176 7.382667 -2.641975 155 147 136
-5.066561 7.301432 -2.618566 212 206 192
-5.066561 7.301432 -2.618566 212 206 192
3.632788 7.189529 -3.978098 159 153 141
-4.935314 7.227763 -2.697998 201 194 178
2.348265 7.136256 -3.821834 141 134 124
-4.128816 7.119727 -2.915443 136 129 117
3.644538 6.976335 -4.175506 202 198 186
-4.663037 6.922685 -2.920181 142 134 121
1.223829 6.891685 -3.858972 204 200 189
3.322008 6.879014 -4.203983 213 206 196
2.943857 6.866207 -4.151122 216 210 198
2.164557 6.737693 -4.075967 219 213 201
0.727702 6.697579 -3.919291 210 204 192
0.201677 6.652617 -3.861273 215 207 194
-3.479979 6.705485 -3.314567 130 124 112
-3.483743 6.717123 -3.316745 130 124 112
3.050328 6.622315 -4.299715 203 196 186
-4.391838 6.609820 -3.216483 140 132 119
-2.957444 6.597384 -3.474062 199 191 180
0.835916 6.561095 -4.046360 224 217 207
0.107138 6.507552 -3.949198 233 225 212
-3.364818 6.569174 -3.445764 187 181 169
-3.048429 6.531818 -3.495720 200 194 182
-3.270272 6.520031 -3.476307 202 196 182
-3.272864 6.510426 -3.477539 202 196 182
2.272174 6.475977 -4.331740 120 111 102
-3.966309 6.462522 -3.434506 125 117 104
-3.225336 6.416427 -3.549610 207 201 187
2.442313 6.395967 -4.429681 135 127 116
-3.637351 6.395294 -3.506740 132 124 113
-4.662659 6.404381 -3.382103 203 195 182
-3.989904 6.367236 -3.484271 185 177 164
1.388693 6.296157 -4.301192 227 223 214
-4.491937 6.347659 -3.445933 138 130 117
-3.946387 6.339743 -3.521934 170 163 153
1.583891 6.192894 -4.402689 153 146 136
-3.234914 6.217360 -3.686428 199 191 178
-3.906177 6.149004 -3.642874 199 193 181
2.460533 6.080283 -4.647225 197 193 182
0.165159 6.048067 -4.306817 154 146 135
2.197947 5.949348 -4.697780 209 201 190
-4.238575 5.920285 -3.734042 137 129 116
-2.241898 5.944545 -4.046837 232 224 211
-3.170391 5.930824 -3.905952 197 189 178
-4.359891 5.928324 -3.760585 126 118 105
-2.963583 5.922304 -3.960784 197 193 181
-3.257241 5.904724 -3.926020 130 122 109
-4.483508 5.867715 -3.774718 207 199 188
-2.636806 5.863976 -4.048061 204 196 183
-3.594692 5.821712 -3.922996 143 135 122
2.027301 5.748415 -4.802387 216 208 197
2.024929 5.742132 -4.802146 216 208 197
1.347492 5.705001 -4.729828 222 213 204
1.669355 5.747756 -4.791841 214 206 195
-4.400591 5.694516 -3.878983 164 156 143
2.052557 5.648835 -4.861226 210 202 191
1.486231 5.672165 -4.780790 118 110 99
1.486231 5.672165 -4.780790 118 110 99
-2.681324 5.687173 -4.165935 116 108 95
-2.681324 5.687173 -4.165935 116 108 95
-4.122365 5.666535 -3.964766 122 114 101
-3.678408 5.639862 -4.044176 173 165 152
-3.678408 5.639862 -4.044176 173 165 152
-2.922183 5.619917 -4.182293 131 125 113
-2.347302 5.574396 -4.305177 195 189 177
12.210240 20.380697 9.621373 216 212 218
12.210240 20.380697 9.621373 216 212 218
13.905573 21.101757 8.434764 241 237 226
12.275808 21.254196 8.405897 173 171 174
13.950720 21.782522 7.835558 196 188 175
13.757936 21.319267 7.250218 227 219 206
-4.918769 13.252853 1.657003 195 189 177
-6.826314 12.723810 1.519706 198 192 180
-6.562374 12.598949 1.420941 174 168 156
4.731934 12.329812 -0.340374 160 153 143
3.498801 12.039145 -0.432146 196 190 176
-5.223570 12.088209 0.850599 199 193 181
-4.132414 11.883700 0.563261 167 161 147
4.216805 11.318951 -1.039876 163 157 145
-4.572694 11.172999 0.154542 203 197 185
-5.957788 11.197175 0.293179 199 193 181
-6.398722 10.799777 0.292957 186 180 168
-3.820355 10.446139 -0.195106 197 191 179
5.540411 10.862931 -1.541455 192 186 174
-6.357338 10.348161 0.002449 200 194 182
-5.354956 10.240329 -0.250023 202 196 184
-5.728545 9.949423 -0.525460 167 161 149
-3.433230 9.687432 -1.135811 209 203 191
-3.528531 9.460027 -1.222556 196 190 178
-3.538589 9.501774 -1.220121 196 190 178
5.245274 9.364975 -2.587843 200 192 181
-4.314742 9.055761 -1.413619 192 186 174
-3.897794 9.182570 -1.473796 202 196 184
-4.413009 8.909461 -1.584145 185 179 167
-3.647053 8.702069 -1.747003 166 159 149
2.341028 8.594299 -2.727857 180 175 163
-5.279840 8.439629 -1.656987 200 193 177
-5.345397 8.586083 -1.646055 200 193 177
-4.195656 8.565095 -1.830772 153 149 137
-5.068825 8.526147 -1.731197 167 163 151
-4.972297 8.400576 -1.831141 162 156 144
-3.400817 8.068141 -2.314917 202 196 182
3.864125 7.981112 -3.465210 201 194 184
-4.921010 7.760869 -2.209842 201 193 180
-4.185230 7.616027 -2.552470 199 191 178
-3.932636 7.691367 -2.613764 194 186 173
-4.708337 7.505444 -2.491364 170 162 151
1.190467 7.505761 -3.389190 166 159 149
-3.845446 7.511620 -2.670858 161 153 142
-4.753028 7.411655 -2.530994 194 186 175
3.922115 7.378912 -3.863551 134 128 116
-5.083871 7.451383 -2.523480 194 184 172
2.388122 7.300590 -3.735088 202 195 185
3.341373 7.244902 -3.905994 197 190 180
-4.744658 7.211596 -2.727591 124 116 105
3.327116 7.124103 -3.966676 196 189 179
3.371464 7.114643 -3.997341 152 145 135
-4.274763 7.118073 -2.887201 145 137 124
-4.601157 6.926953 -2.930862 184 176 163
-4.164236 6.938196 -3.017819 133 125 112
1.751831 6.850118 -3.938238 199 192 182
-4.838897 6.895106 -2.976196 191 185 173
-4.564833 6.803778 -3.060945 137 129 116
1.695070 6.649516 -4.081559 142 136 124
2.850076 6.636666 -4.283337 168 160 149
2.835002 6.605863 -4.275990 168 160 149
-2.896179 6.628438 -3.452003 210 204 191
2.520911 6.507380 -4.300396 206 197 188
-4.393132 6.512193 -3.292231 202 194 181
-3.834543 6.490872 -3.405824 135 127 116
-3.834543 6.490872 -3.405824 135 127 116
-4.358868 6.454110 -3.338641 149 141 128
3.252950 6.455532 -4.504032 172 168 157
-2.874346 6.435992 -3.581311 208 202 190
-4.063189 6.392164 -3.430492 192 184 171
-4.217868 6.352559 -3.447691 151 143 130
-3.321134 6.344488 -3.596580 148 142 128
-3.589828 6.336097 -3.567567 155 147 136
-3.254095 6.336368 -3.613901 206 200 185
2.609881 6.305332 -4.526518 211 202 193
-4.164972 6.237408 -3.500646 182 176 162
-3.151473 6.198536 -3.726945 145 137 124
-3.152315 6.201714 -3.728133 145 137 124
1.484204 6.089622 -4.484951 127 119 105
-3.233656 6.075059 -3.801754 159 151 138
-2.989256 6.004137 -3.881167 205 197 184
11.711147 20.237778 7.734233 33 35 32
12.503438 20.783953 5.294510 139 132 122
-6.405072 11.316611 0.543966 189 183 171
-6.346023 11.223269 0.428890 166 160 148
-4.738507 10.796695 -0.162854 196 190 178
-3.665305 10.352345 -0.516469 201 195 179
-5.414270 9.894171 -0.748684 203 197 185
-6.192040 9.957641 -0.621681 0 0 0
5.439307 9.567170 -2.436810 145 138 128
-4.840098 9.749159 -0.946626 193 187 175
-5.448423 9.391626 -1.028103 196 190 178
-4.543829 9.254686 -1.222981 209 202 192
-3.737321 9.124366 -1.507263 198 192 180
-5.260178 8.751750 -1.411489 159 153 141
3.509670 8.587446 -2.852651 189 183 171
-3.560295 8.226025 -2.167491 170 164 152
3.718734 8.093779 -3.312246 192 183 174
3.388505 8.133015 -3.279426 159 153 141
3.465277 7.374863 -3.810591 186 179 169
0.418239 6.701975 -3.857011 216 210 198
-4.610957 6.548661 -3.269071 191 183 170
-2.830379 6.147304 -3.813521 188 182 168
-3.939723 5.863725 -3.827343 146 143 128
-2.278521 5.747889 -4.186346 154 146 133
12.664196 21.447292 8.916109 15 16 18
12.279627 20.716898 7.369698 167 168 161
13.640745 23.850187 8.478748 27 36 34
13.304038 23.420061 7.406646 112 111 106
9.741224 24.944529 8.148703 180 176 165
13.295466 21.166826 5.814597 124 115 106
15.260894 26.049290 6.938851 0 0 0
-5.184543 11.335634 0.300428 183 177 165
-4.946436 8.402784 -1.738552 196 189 173
-5.119503 7.812341 -2.227823 127 119 108
2.384361 6.995540 -3.920690 156 150 136
-3.790883 6.792550 -3.199671 194 188 174
-3.589597 6.561766 -3.436899 194 188 174
14.262227 22.202087 9.013196 17 16 14
13.576924 25.086573 6.686874 182 178 169
-3.930334 7.917627 -2.394351 188 180 169
-3.930334 7.917627 -2.394351 188 180 169
13.414346 22.175917 7.755941 24 37 38
-3.227984 5.725076 -4.077167 182 174 161
13.450044 23.129528 7.893596 174 174 166
2.383151 7.896107 -3.102850 220 214 202
-2.970271 5.660131 -4.112721 178 170 157
13.158926 20.924892 8.112176 214 207 199
13.913044 25.137310 6.303895 139 135 126
-2.162063 5.742466 -4.190286 198 194 183
0.899784 6.653961 -3.976434 202 197 187
0.524040 6.607262 -3.948304 218 215 205
-2.788478 6.582817 -3.492110 92 91 87
0.479874 6.508124 -4.011259 210 206 196
1.738778 6.332699 -4.327233 181 177 166
-3.618194 6.363878 -3.538632 175 173 162
0.710387 6.164615 -4.295612 210 207 200
0.282836 6.027822 -4.324105 202 199 192
1.654212 6.020205 -4.541309 203 198 185
0.014361 5.938405 -4.358740 96 91 78
1.689534 5.727161 -4.760570 129 128 122
-2.897656 6.041446 -3.871361 186 185 175
0.134053 5.594199 -4.629683 183 180 170
-2.498343 5.857492 -4.066050 189 184 174
-2.577765 5.555566 -4.275270 118 116 108
3.889751 9.797311 -2.052799 179 179 171
1.269258 7.187996 -3.636526 211 206 197
0.279129 6.002634 -4.346848 192 188 179
-4.006886 7.660165 -2.526944 188 183 173
0.820845 7.229680 -3.533901 141 136 124
0.770399 7.201210 -3.553336 176 171 154
-3.322253 6.481398 -3.492987 136 131 119
1.768541 5.893895 -4.646204 191 187 177
0.792217 6.687173 -3.931494 168 166 158
-3.032280 6.271120 -3.687988 167 162 149
-2.437476 6.063769 -3.923399 115 112 105
2.021476 6.321774 -4.368404 116 114 108
-3.198324 8.826936 -1.806491 179 175 161
-2.439772 6.327000 -3.729620 118 115 108
-3.676775 6.529151 -3.411687 129 127 117
0.907619 5.550415 -4.787841 191 190 184
0.576616 6.473891 -4.054640 183 179 166
-3.095599 5.957797 -3.902858 100 97 86
-2.297642 6.127582 -3.888666 146 142 132
1.585337 6.541533 -4.150314 198 192 178
-2.730994 5.932297 -3.971219 125 121 111
1.137370 7.131144 -3.653477 191 187 176
0.605738 5.548291 -4.729670 102 98 88
1.547055 7.476388 -3.461206 186 183 175
-2.213358 5.565232 -4.320199 178 175 165
0.256905 6.250540 -4.171241 196 193 183
0.642744 6.203335 -4.263572 187 184 174
-2.084945 5.647276 -4.272334 92 88 76
-3.140455 6.470122 -3.525944 189 186 171
1.983416 6.498787 -4.239731 208 203 191
-2.590425 6.171165 -3.829965 181 179 167
-4.155072 5.887778 -3.816391 201 200 191
-3.788492 6.498259 -3.414763 189 186 172
2.101708 5.818299 -4.759824 196 193 177
1.710508 6.789671 -3.990128 127 123 113
1.870221 6.900466 -3.935441 189 186 179
1.524187 5.704854 -4.749721 212 206 191
-2.363400 5.634587 -4.243466 189 183 171
-3.821910 6.654540 -3.295995 205 201 189
0.452815 5.742021 -4.566172 205 202 201
1.787108 8.293175 -2.932825 137 135 127
1.386617 6.010632 -4.513851 127 125 113
-4.163492 6.888714 -3.076085 201 196 183
-3.159084 6.130301 -3.764761 115 110 97
1.920378 5.610311 -4.881310 201 196 183
1.913070 7.912726 -3.202379 139 136 130
2.777645 7.515275 -3.623477 130 127 119
2.920394 6.418766 -4.441030 148 144 140
-3.400698 5.606732 -4.116542 168 164 152
-2.392256 5.879849 -4.058351 185 184 173
-2.521598 6.112048 -3.872974 200 196 185
-4.104965 6.642187 -3.259389 124 120 108
-2.448214 5.958004 -4.004774 197 195 180
-2.936119 5.677470 -4.135778 197 193 181
1.787115 5.834800 -4.692481 185 179 166
0.044541 6.095947 -4.247110 189 187 181
-2.369877 6.076495 -3.918513 89 87 76
-3.192355 6.455918 -3.532198 138 135 122
-2.516805 6.653772 -3.483475 92 88 75
1.618107 6.163413 -4.439671 115 115 107
-3.849202 6.546124 -3.379570 127 123 110
0.733925 6.597959 -3.988883 96 93 79
1.022102 6.610816 -4.016954 129 127 119
-2.517845 6.658684 -3.482989 107 105 94
2.911519 7.617589 -3.553311 186 182 171
-4.408166 10.616522 -0.406895 180 177 169
1.976129 5.843813 -4.713589 225 220 209
2.472798 5.703860 -4.901385 209 204 194
-3.706949 10.408002 -0.532783 209 203 189
-4.528093 10.257026 -0.545712 202 196 184
13.699438 22.278404 7.655281 189 179 168
12.530850 29.545191 11.676166 43 55 63
12.347632 29.257896 11.554607 43 55 63
11.931278 29.249718 11.376167 222 219 212
0.291230 1.367528 -2.473393 0 0 0
-3.524477 3.215050 -5.853177 110 103 91
-0.688770 6.084938 -4.154332 191 191 178
-2.786281 3.323561 -5.869071 190 187 172
-3.706530 3.353473 -5.722058 187 185 176
-1.818733 2.341953 -6.728981 187 182 166
-2.673693 1.830544 -6.987945 119 112 98
-0.895734 1.917163 -7.175586 195 188 174
-4.190787 3.700016 -5.381830 209 203 189
-3.149676 2.871816 -6.156107 95 89 76
-1.971445 2.868761 -6.317421 208 203 187
0.604572 2.938125 -6.638889 184 178 163
-4.486055 3.228200 -5.704509 123 117 103
-2.495988 2.874433 -6.240578 228 223 204
-2.611056 3.162504 -6.018250 215 208 191
-3.153353 3.100887 -5.988409 89 89 83
-0.770434 0.651367 -8.123616 175 170 158
-3.986962 2.686478 -6.176843 197 194 184
-3.905207 2.852340 -6.071946 203 199 187
-0.046234 2.152138 -2.577216 63 49 44
0.226707 0.794027 -8.166405 30 27 18
1.575497 7.044015 -3.789776 192 186 172
2.908380 6.241286 -4.566057 220 216 209
-0.354755 3.101337 -6.369076 108 102 90
-5.199993 4.449473 -4.718601 191 186 176
-2.710968 0.942379 -7.629017 216 212 200
-6.517184 -9.074413 -8.956661 0 0 0
-6.708285 34.541626 20.908640 216 220 214
-6.708285 34.541626 20.908640 216 220 214
-5.475509 25.984959 14.749736 123 123 121
-1.914219 15.020954 2.800933 218 212 200
-1.306909 13.411906 1.430277 145 139 127
-5.955852 6.296623 -3.233299 230 224 212
-5.342501 6.224875 -3.485433 221 214 204
-0.962998 8.031581 -2.716230 254 247 237
-5.430123 6.040673 -3.608175 115 108 98
-1.010242 7.644877 -2.977000 249 243 231
-5.642231 5.582928 -3.804284 225 217 206
-5.088691 5.916142 -3.729021 236 232 223
-5.866023 5.306545 -3.968351 150 144 130
-0.747003 7.465601 -3.134890 130 124 110
-5.603788 5.324021 -3.996142 215 207 194
-5.346733 5.271694 -4.073772 119 111 100
-4.545938 5.409612 -4.090668 215 211 202
-1.127568 6.911331 -3.482054 154 146 133
-1.002845 6.945601 -3.476194 161 153 142
-4.781046 5.267167 -4.160333 108 100 89
-1.113835 6.841519 -3.531410 255 249 236
-5.458277 4.938329 -4.302057 152 144 131
-5.504102 4.900157 -4.324586 206 198 185
-4.884135 5.165987 -4.220594 128 120 109
-1.069399 6.808702 -3.565681 251 243 230
-0.772124 6.942494 -3.513961 230 222 209
-4.960397 5.084661 -4.263738 237 230 220
-0.516432 7.006644 -3.500496 243 235 224
-4.529071 5.227684 -4.229233 228 222 210
-0.578648 6.957301 -3.529247 137 131 119
-4.413009 5.242937 -4.230631 232 225 215
-0.834714 6.746778 -3.643802 243 237 224
-0.839604 6.764956 -3.647761 243 237 224
-0.941929 6.676234 -3.677705 118 110 99
-1.231956 6.541668 -3.740804 153 146 130
-0.962369 6.604397 -3.726958 153 145 132
-1.005620 6.585195 -3.737358 117 109 98
-4.148068 5.192801 -4.304646 122 116 104
-4.550292 5.036665 -4.410092 115 109 97
-0.894282 6.511648 -3.815760 220 213 202
-4.344116 4.990387 -4.428174 98 94 82
-4.562047 4.894341 -4.472849 104 98 84
-0.922032 6.443903 -3.844694 92 90 77
-1.058504 6.390849 -3.873432 147 140 124
-4.635564 4.817720 -4.508977 117 109 96
-3.855656 5.196475 -4.386343 134 126 113
-4.318782 4.812204 -4.559978 215 207 194
-0.026691 6.408102 -4.000551 228 222 210
-3.912111 4.697726 -4.706604 213 209 194
0.040240 6.391110 -4.021280 113 106 96
-0.347012 6.199955 -4.104703 221 213 202
-0.347012 6.199955 -4.104703 221 213 202
-4.333437 4.369833 -4.888678 155 148 132
-0.125506 6.188252 -4.150078 132 127 116
-3.834025 4.566478 -4.818595 121 114 96
-1.194307 5.554600 -4.463574 117 113 101
-1.194814 5.555057 -4.463852 117 113 101
-0.431914 5.857868 -4.346985 120 114 101
-0.431914 5.857868 -4.346985 120 114 101
-0.349977 5.874348 -4.353385 133 127 113
0.054935 6.033495 -4.302789 211 205 191
-1.057118 5.486734 -4.530895 214 207 197
-0.567911 5.694227 -4.454265 166 160 145
-3.248240 4.508301 -4.945033 112 104 91
-3.617649 4.314466 -5.032449 237 229 218
-3.264853 4.467835 -4.971198 216 208 195
-0.455237 5.698163 -4.470333 217 211 199
-3.141642 4.469670 -4.981804 121 113 100
-3.000833 4.523643 -4.975622 202 194 181
-3.000366 17.851095 5.284443 212 206 194
-2.724005 15.367567 3.160333 203 197 183
-1.998105 14.939364 2.728107 202 196 182
-0.721875 15.584904 2.937899 206 199 183
-0.721875 15.584904 2.937899 206 199 183
-1.595069 14.865170 2.592759 207 201 189
-2.261908 14.335166 2.296713 224 218 206
-1.541806 13.543183 1.589247 228 222 210
0.151563 13.652610 1.374213 225 218 208
-0.301746 13.204063 1.044356 133 126 116
-0.301746 13.204063 1.044356 133 126 116
-0.796055 12.860177 0.868937 144 138 126
-9.928127 8.974930 -0.790001 231 223 210
-9.463081 8.546172 -0.884351 231 223 210
-1.756711 12.313407 0.558457 231 225 213
1.137924 13.464415 0.984276 152 145 135
-1.762218 11.956056 0.368308 235 231 219
0.125069 12.286024 0.287241 149 142 132
-0.973391 11.586955 -0.055569 238 232 220
0.202879 11.860112 -0.010251 157 151 138
-0.337385 11.589434 -0.152527 222 215 204
0.196864 11.850484 -0.067920 237 231 219
-1.656461 10.805761 -0.531866 223 217 205
-0.904586 10.993067 -0.506707 148 142 130
-0.904586 10.993067 -0.506707 148 142 130
-8.714905 7.302335 -1.941708 205 199 187
-7.700644 7.090581 -2.262558 218 210 199
-7.946480 6.905189 -2.367276 203 197 185
-1.274799 9.993022 -1.194067 215 209 195
-1.179956 10.000600 -1.241378 221 213 200
0.776929 10.825098 -0.947157 239 233 221
-1.239545 9.834634 -1.350823 224 217 201
0.397862 10.549262 -1.109270 234 228 216
0.397862 10.549262 -1.109270 234 228 216
0.747999 10.603205 -1.102207 239 235 223
-1.230048 9.672073 -1.484282 138 132 118
1.176120 10.509248 -1.086578 215 206 197
-7.541784 6.628744 -2.669815 214 208 196
-7.318133 6.547888 -2.795475 201 195 181
0.089455 9.812135 -1.539226 217 211 199
-1.044537 9.289721 -1.797243 231 223 210
0.399192 9.999319 -1.530764 228 224 213
0.399192 9.999319 -1.530764 228 224 213
-0.342729 9.446720 -1.781026 237 231 219
-0.342729 9.446720 -1.781026 237 231 219
0.307638 9.806110 -1.671623 242 234 223
-6.486533 6.533340 -2.907401 153 147 135
-6.866323 6.308769 -3.053719 133 125 112
-6.866323 6.308769 -3.053719 133 125 112
-7.230893 6.052975 -3.172364 214 208 196
-6.299866 6.430871 -3.046764 166 159 147
-6.299866 6.430871 -3.046764 166 159 147
-0.498007 9.037455 -2.032578 253 247 235
-0.498007 9.037455 -2.032578 253 247 235
0.381291 9.521029 -1.884700 239 231 220
0.381291 9.521029 -1.884700 239 231 220
-6.659880 6.018130 -3.304642 220 212 199
-0.898146 8.584766 -2.316956 240 234 222
0.081854 9.024835 -2.186000 221 215 203
-0.669213 8.637363 -2.329153 231 225 213
-5.683037 6.355027 -3.240683 129 122 112
-5.971198 6.102578 -3.353200 228 222 210
0.404273 9.010410 -2.276200 224 220 208
1.152964 9.204041 -2.189989 221 213 202
-5.655454 6.277827 -3.417285 207 200 190
-5.863776 5.978151 -3.466153 214 208 196
-5.621580 6.115433 -3.425766 128 121 111
-5.498952 6.269145 -3.410360 147 140 130
1.070801 9.201332 -2.240488 233 225 214
-5.685137 5.967989 -3.513658 236 229 219
0.194684 8.639871 -2.495042 234 228 214
-0.520148 8.243105 -2.681372 241 234 224
-0.401178 8.258656 -2.662469 229 222 212
-0.612962 8.119169 -2.704826 220 213 203
0.161659 8.532635 -2.564093 238 231 221
0.161659 8.532635 -2.564093 238 231 221
-0.796688 7.873039 -2.833408 243 236 226
-5.096783 5.922923 -3.647793 233 228 222
-6.446691 5.291949 -3.895526 208 200 187
-5.643629 5.664407 -3.760308 212 208 196
-5.189972 5.860472 -3.712590 149 142 134
-6.691469 5.090686 -3.980722 205 197 184
-4.971262 5.817579 -3.727940 162 157 150
-6.032645 5.308008 -3.950769 165 157 144
-1.066225 7.402372 -3.136571 204 198 186
-5.926445 5.216722 -4.031361 153 147 131
-5.926445 5.216722 -4.031361 153 147 131
-5.297792 5.466713 -3.959927 199 191 180
-5.297792 5.466713 -3.959927 199 191 180
-0.138958 7.715917 -3.044688 233 225 212
-0.314709 7.739918 -3.080691 226 222 209
-0.470370 7.552212 -3.125665 237 231 214
1.024921 8.157806 -2.894155 252 248 236
-0.619734 7.390719 -3.218850 232 226 214
-5.318297 5.295890 -4.063653 202 194 183
0.115067 7.764550 -3.112561 232 225 215
-5.851116 4.949717 -4.224053 225 217 204
-5.851116 4.949717 -4.224053 225 217 204
-5.040299 5.409940 -4.102330 211 203 192
0.463674 7.793139 -3.137872 101 92 83
-4.542699 5.481863 -4.047301 236 231 225
0.558791 7.801261 -3.142868 91 88 73
-0.843044 7.085625 -3.417163 157 151 139
-5.138062 5.152317 -4.192407 127 119 108
-0.239581 7.252326 -3.361192 119 111 99
0.434424 7.662218 -3.252386 233 227 213
-4.185239 5.503364 -4.126841 158 151 141
-4.185239 5.503364 -4.126841 158 151 141
-5.492437 4.793294 -4.412095 154 147 131
-5.490175 4.792426 -4.413088 154 147 131
-3.905430 5.528663 -4.151908 143 135 122
-0.105475 7.132869 -3.468089 249 245 233
0.197322 7.370548 -3.438835 157 149 138
-0.922748 6.748674 -3.635113 249 244 232
-1.143931 6.624897 -3.682906 246 240 228
0.525524 7.409051 -3.416227 229 221 210
0.525524 7.409051 -3.416227 229 221 210
-5.305440 4.686429 -4.509046 214 207 191
-0.444253 6.823046 -3.645020 211 203 190
-4.376758 5.110008 -4.379505 148 142 130
-4.387613 5.080701 -4.394853 224 218 206
-4.387613 5.080701 -4.394853 224 218 206
-4.251771 5.077803 -4.378366 200 196 184
-0.170811 6.873028 -3.668555 231 223 210
-5.230119 4.569011 -4.590518 132 122 110
-4.400686 4.968669 -4.471723 231 225 211
-4.988966 7.963650 -5.081595 37 29 21
1.254788 7.391339 -3.487552 248 240 227
-5.460552 4.301258 -4.710773 219 212 196
-5.320736 4.380722 -4.702739 224 217 201
-3.705507 5.087420 -4.461116 222 214 201
-4.262486 4.820543 -4.565121 219 211 198
-5.382937 4.235993 -4.776131 204 197 181
-3.861464 4.986787 -4.527877 119 111 98
1.064989 7.085120 -3.707453 142 136 124
-0.080617 6.527636 -3.912740 217 211 195
-4.699519 4.447252 -4.768632 120 112 99
0.669610 6.813344 -3.821747 237 231 219
-4.738259 4.369980 -4.791111 111 101 89
-4.738259 4.369980 -4.791111 111 101 89
-4.011808 4.677727 -4.724859 216 209 191
1.370572 6.959441 -3.759908 240 232 221
-0.704885 5.988095 -4.205344 130 124 112
1.076846 6.776066 -3.908950 134 128 116
1.321505 6.728239 -3.884345 223 215 204
-0.360347 6.005399 -4.252465 133 127 115
1.537122 6.817298 -3.967255 148 141 131
-3.248891 4.696321 -4.804043 210 203 187
-0.655820 5.798864 -4.363716 143 137 125
-0.186338 5.960864 -4.313902 207 201 187
-4.133039 4.193793 -5.035472 141 134 118
1.011356 6.358670 -4.125649 245 237 226
1.011356 6.358670 -4.125649 245 237 226
-0.438139 5.748435 -4.432151 226 220 206
-0.366502 5.762822 -4.436628 148 142 130
-4.126744 3.992163 -5.161391 214 206 193
-4.480695 3.683611 -5.212128 207 198 183
-11.322295 34.980450 30.816893 32 34 28
-1.611654 17.203444 4.364936 173 167 153
-2.439940 16.253174 3.847091 172 166 154
-2.489497 15.701931 3.530762 181 175 163
-1.981528 14.535285 2.367322 203 197 183
-0.293903 13.639335 1.431585 170 163 153
-0.154966 12.563645 0.565225 203 196 186
0.509309 12.891601 0.628131 210 203 193
-0.378816 12.415727 0.443355 219 212 202
1.351488 12.786472 0.632074 220 213 203
-9.402740 8.538610 -1.165274 156 149 133
-9.473522 8.148264 -1.424594 177 171 157
-8.737825 7.847273 -1.518552 156 149 133
-8.374243 7.534184 -1.841336 203 195 182
-8.337564 7.216022 -2.041972 158 150 137
-8.549192 7.091912 -2.178829 204 198 186
0.724302 11.403149 -0.516264 242 236 223
-8.071477 7.256992 -2.127240 203 197 185
-7.957937 6.860069 -2.465486 204 198 186
-0.546544 10.171078 -1.192908 219 213 201
1.092120 10.687019 -0.949312 192 186 174
-7.723755 6.839388 -2.557592 197 191 179
-0.361858 10.075089 -1.309078 215 209 197
-0.361858 10.075089 -1.309078 215 209 197
-7.384947 6.709038 -2.638478 201 194 178
-7.343481 6.752931 -2.643838 145 139 125
-7.484648 6.633374 -2.692710 130 124 112
-0.931304 9.611579 -1.579673 223 216 200
0.544814 9.988339 -1.415022 241 233 222
-7.717454 6.170503 -3.025151 140 134 122
-7.737776 6.188032 -3.026709 140 134 122
-6.913549 6.565466 -2.887275 208 202 188
-7.148902 5.956596 -3.300751 216 210 196
-5.951437 6.389409 -3.129227 211 205 193
-0.329258 8.951822 -2.158667 152 146 134
-1.041048 8.239373 -2.517363 235 231 220
-7.130484 5.429765 -3.678152 125 117 104
1.182180 9.071305 -2.225165 101 93 82
1.180271 9.037714 -2.222889 101 93 82
-6.608758 5.574566 -3.683958 203 197 185
-6.504709 5.389369 -3.791364 199 193 177
-5.068847 6.032300 -3.563298 183 178 171
1.346891 8.773651 -2.457641 238 230 219
-5.395041 5.748361 -3.716168 207 201 189
0.640974 8.485198 -2.671545 230 221 212
0.582400 8.286757 -2.698382 186 177 168
0.780365 8.503090 -2.672488 239 231 222
-5.420063 5.639628 -3.792760 193 185 174
-0.931415 7.364599 -3.200396 243 237 225
-5.441468 5.151418 -4.154288 218 210 197
-0.184929 2.502584 -2.779060 16 17 17
0.989531 7.947483 -3.083551 165 159 147
0.989531 7.947483 -3.083551 165 159 147
-5.796974 4.827589 -4.322402 214 206 193
-5.092911 5.145719 -4.212296 208 200 189
-5.282077 4.943303 -4.302407 200 191 176
-5.584354 4.603471 -4.498242 214 208 194
1.384564 7.621592 -3.334585 138 132 119
-0.225468 6.844761 -3.663099 114 106 95
-3.755725 5.215324 -4.344480 226 219 203
-5.004777 4.609095 -4.601178 134 124 112
-5.357912 4.382769 -4.688066 172 165 149
-5.357912 4.382769 -4.688066 172 165 149
1.438726 7.393652 -3.486101 141 133 122
1.116497 7.253234 -3.563716 237 229 218
1.179609 7.173536 -3.614066 155 147 136
-0.065736 6.701978 -3.846925 202 194 183
-0.758558 6.310554 -3.967527 227 221 207
-5.010664 4.304989 -4.843392 213 203 191
0.455398 6.685998 -3.884058 212 204 191
-3.936544 4.677559 -4.716947 194 187 171
-4.898493 4.211936 -4.908864 204 196 183
-4.785542 4.120091 -4.941953 219 211 198
-0.191797 6.043565 -4.224602 197 191 179
0.882832 6.490044 -4.035404 233 225 214
1.515639 6.826574 -3.947196 212 204 191
-4.744164 3.763809 -5.159289 138 130 117
-4.490941 3.896048 -5.113789 124 116 103
-4.504516 3.961985 -5.151348 193 183 171
1.121930 6.366905 -4.133170 234 228 216
1.284411 6.529190 -4.148764 236 228 217
1.444683 6.432280 -4.095275 156 147 138
-4.367672 3.872687 -5.149007 217 207 195
-5.424334 28.857441 16.976219 14 17 16
-1.274752 34.144802 16.577337 54 63 60
-1.310955 34.830833 16.961643 54 63 60
-3.213672 22.958696 9.670457 160 156 144
-3.090522 23.239246 9.738626 203 199 187
-0.212544 16.339972 3.625731 192 184 173
-1.734319 15.640924 3.261011 198 190 177
-0.555572 15.307690 2.842354 167 161 145
-0.565286 13.514546 1.237486 186 179 169
0.181879 13.111897 0.905916 183 176 166
0.618472 12.854536 0.672553 205 199 187
0.199000 12.600730 0.566400 178 171 161
0.177525 12.854464 0.619385 178 171 161
-9.759659 8.188103 -1.302267 207 199 186
-1.356212 11.605418 0.024288 208 202 190
-8.960398 8.013238 -1.535984 208 201 185
-1.385051 9.887459 -1.261994 234 227 209
-0.026960 10.474064 -1.033201 154 148 136
0.506495 10.741561 -0.964824 220 214 202
-6.337001 5.765940 -3.582215 205 199 185
-6.114511 5.702914 -3.661397 151 147 135
-6.106977 5.692505 -3.660235 151 147 135
-6.271508 5.443057 -3.815381 158 152 138
-6.423460 5.358578 -3.853706 189 182 166
-4.820647 4.879472 -4.425619 147 139 126
-0.145203 6.488465 -3.938601 153 147 135
-5.031922 4.007839 -4.962908 163 156 140
-5.108661 4.083936 -4.991535 163 156 140
-3.924393 4.494838 -4.861311 220 211 196
-6.134516 37.729073 19.786406 0 0 0
-2.497909 15.246394 3.154910 180 174 162
-0.673606 11.478735 -0.187314 214 208 196
1.220675 12.062947 0.061492 217 210 200
-6.658938 5.164522 -3.942965 205 197 184
-1.043922 6.581079 -3.743967 192 184 173
-3.938468 5.265460 -4.290056 175 167 154
-3.753418 4.334353 -4.992365 145 137 124
0.769904 6.204114 -4.277274 152 144 133
-1.038637 33.230961 14.910171 195 191 180
0.603327 11.854153 -0.259229 228 222 210
0.327416 10.397998 -1.131794 213 207 195
-5.546775 4.939840 -4.248733 196 186 174
-1.678269 17.142609 4.685696 201 195 181
-0.864877 7.261991 -3.269422 185 182 170
-0.897978 6.995525 -3.454995 68 66 54
-4.224045 3.978307 -5.194698 99 93 77
-3.639245 5.100189 -4.450833 105 103 96
-0.930607 6.074090 -4.118012 165 160 153
-4.851890 4.276468 -4.891097 109 105 95
-0.263151 5.958737 -4.302260 182 178 167
0.065857 6.068243 -4.262666 117 113 106
-0.402604 6.234580 -4.086794 79 78 72
-0.144066 7.271615 -3.367809 179 176 164
-0.785564 5.583338 -4.502563 190 187 179
-4.911201 5.617022 -3.901164 175 172 158
-3.946290 5.136571 -4.389490 95 93 86
-0.852545 7.014128 -3.442804 209 205 197
-1.250550 6.677715 -3.635481 185 182 172
-4.775000 4.878969 -4.453551 203 199 186
-4.447701 5.020806 -4.400559 202 200 190
-0.570491 6.348551 -3.974374 167 164 154
-4.381065 4.644124 -4.679536 212 210 201
-3.413177 4.994955 -4.569246 194 188 178
-4.431766 4.399928 -4.854693 122 121 115
-4.134629 4.646197 -4.713838 84 81 75
-4.207772 4.485985 -4.828588 216 212 199
0.041061 6.343044 -4.065143 111 105 91
0.350935 6.976500 -3.647896 100 98 88
-0.664947 5.920392 -4.267325 99 96 81
-1.066140 5.736527 -4.350408 203 199 188
-0.914259 5.884972 -4.261473 183 179 165
-4.289384 4.249304 -4.986338 195 191 180
-0.444335 6.379155 -3.968349 188 186 181
-3.060225 4.707143 -4.823924 135 133 125
-0.509271 6.109023 -4.155533 179 178 168
-0.147324 7.720181 -3.024284 193 193 181
-0.698445 6.278663 -4.007707 198 194 183
0.216662 6.959278 -3.643409 112 107 94
-4.772464 4.511243 -4.730635 143 142 139
0.186999 6.745487 -3.789447 118 114 105
-0.514100 6.547908 -3.831761 193 190 177
-0.554897 6.524261 -3.849066 99 93 77
-3.394582 4.833250 -4.690080 178 173 161
-0.574890 7.444273 -3.178672 207 203 191
-3.781978 4.413565 -4.941701 211 207 192
-0.669207 5.638041 -4.480900 111 106 99
-0.261852 6.215696 -4.116650 97 93 82
-0.928089 6.856076 -3.564602 199 196 189
-4.478143 4.745100 -4.599611 193 187 171
-1.096600 6.148035 -4.044074 118 116 106
-0.754040 6.504086 -3.835474 99 95 86
-5.138879 4.508657 -4.689146 192 185 168
-4.578350 4.701165 -4.609562 187 181 166
0.616291 6.179354 -4.274842 111 108 102
-0.919171 5.610641 -4.458288 117 115 110
-3.528371 4.546773 -4.874009 201 199 190
-4.196847 4.810292 -4.589900 122 118 103
-0.482632 5.834590 -4.366009 114 111 104
-5.128821 4.621303 -4.604163 197 192 178
-5.263935 4.558836 -4.620020 196 193 183
-3.876227 5.211975 -4.327943 178 177 166
-0.487822 6.818094 -3.635356 131 131 120
-5.099287 5.377512 -4.025638 189 185 170
-5.634484 5.549268 -3.837125 215 209 193
-5.632210 5.548371 -3.836341 215 209 193
0.376791 8.430123 -2.587211 189 184 171
-0.610454 7.088387 -3.432599 207 201 188
-6.573918 6.019383 -3.364857 201 196 186
-4.011193 4.776891 -4.641568 200 195 181
-4.245161 5.304943 -4.214711 219 215 203
-4.575555 3.930308 -5.180545 220 214 196
-4.872821 4.592405 -4.665234 213 208 197
-4.060767 5.293672 -4.245329 132 128 117
-0.754576 6.763997 -3.641823 188 183 171
-4.601300 4.913859 -4.455986 197 195 182
-4.933991 3.982169 -5.099552 135 131 120
-0.881448 6.092460 -4.118919 181 181 172
-0.361070 10.873528 -0.726386 203 201 196
0.844336 6.530976 -4.057066 191 185 172
-4.876614 4.652190 -4.593376 104 99 81
0.083195 7.181517 -3.470861 191 186 177
-0.810043 6.838990 -3.580496 189 188 178
-4.934205 5.137616 -4.240151 190 187 180
-3.601732 4.790959 -4.681095 110 107 97
-4.125618 4.219366 -5.019803 196 194 189
-5.516305 5.452294 -3.921041 198 193 176
-3.882857 5.399527 -4.198010 192 189 183
1.270255 8.602905 -2.587014 212 207 193
-0.889347 7.689870 -2.959382 201 198 189
-5.057652 5.965549 -3.615667 212 208 195
-0.599018 6.037810 -4.190241 191 188 182
-5.617539 6.247895 -3.319528 140 138 127
-5.617208 6.248919 -3.319109 110 105 90
0.322861 7.003659 -3.625071 214 210 199
0.940210 9.988586 -1.554948 208 206 199
-0.063433 7.444726 -3.248082 114 109 99
-0.719778 6.445605 -3.877572 155 150 137
-0.796278 6.476136 -3.850700 193 193 185
-4.164584 28.198795 13.962981 202 200 188
-10.082269 8.949296 -0.416243 151 144 128
-9.178638 7.804270 -1.476472 210 204 190
-9.274979 7.627140 -1.569504 168 162 148
-8.275148 7.195321 -2.105946 210 202 189
-7.772126 6.754866 -2.538144 209 203 191
-7.805310 6.514363 -2.738158 228 222 210
-7.474065 6.148911 -3.068087 220 214 202
-4.427098 28.602137 13.872312 121 117 106
-12.014983 9.263440 -0.540633 0 0 0
-13.251701 9.614001 -0.713473 0 0 0
-9.958178 8.061761 -1.116437 199 191 178
-9.020591 7.218871 -1.889140 163 157 145
-8.503185 7.195065 -2.090833 192 189 174
-8.793684 6.422150 -2.655064 214 208 196
-7.449908 6.713194 -2.617443 150 144 128
-5.498699 40.368492 20.157864 123 121 108
-3.361225 23.697210 10.193727 146 142 130
-6.778406 6.048779 -3.287333 197 189 176
-9.578780 8.383859 -1.250550 197 190 174
-0.383894 32.861179 15.803246 57 70 78
-0.270959 33.835041 16.439201 62 77 82
-5.822502 40.344269 16.152586 0 0 0
7.346561 10.631252 8.638102 93 94 87
20.488804 20.685272 5.785665 53 58 54
-3.859580 26.383768 12.741273 141 139 127
8.025711 11.211267 -1.629650 155 149 137
6.763723 10.506689 -2.021766 154 147 137
